ncols 119
nrows 32
xllcorner 5300
yllcorner 1150
cellsize 50.0
2.316469311933406061e+03 2.253865498912466137e+03 2.084197187460256828e+03 1.907205967441367875e+03 1.751943414852533124e+03 1.722656299512733540e+03 1.817467547687199840e+03 1.907203766600566951e+03 1.922304293534945145e+03 1.802659121201447306e+03 1.610498317702767963e+03 1.480935522683366116e+03 1.399509468410404224e+03 1.396027960427841663e+03 1.254181707090361897e+03 1.396764489913626448e+03 1.570341420939727186e+03 1.756788683378807036e+03 1.838051675148225968e+03 1.716957414551260626e+03 1.555009818927565220e+03 1.406056127847767357e+03 1.570273630718942741e+03 1.748147775052062798e+03 1.913860163621997799e+03 2.067448273685099593e+03 2.163517375140122567e+03 2.111480410942960589e+03 1.989985609993686694e+03 1.987877412683922103e+03 2.026215897453806974e+03 2.131326968263299932e+03 2.210676266953332743e+03 2.267038480908598103e+03 2.295262979401318717e+03 2.354745320714211630e+03 2.415960327103121472e+03 2.391037804493510521e+03 2.300773529443044481e+03 2.205963300889527090e+03 2.129948709212112135e+03 2.094639409855959912e+03 2.104623441332708808e+03 2.070808002350137940e+03 1.968783187889476949e+03 1.819840619738639816e+03 1.681803451581090485e+03 1.551256614784314706e+03 1.654942896972936978e+03 1.611574433459273223e+03 1.734711543401111385e+03 1.869310607931238337e+03 2.008816023721486545e+03 2.051505055416032519e+03 2.020572789894323250e+03 2.037638938243663915e+03 2.041636873926187491e+03 2.071194299048291214e+03 2.121208085066353306e+03 2.089333335761488797e+03 1.960381494160082639e+03 1.839588066425136731e+03 1.945103906483172295e+03 2.050410834562386754e+03 2.166604459148949445e+03 2.302609619454294261e+03 2.358565198040561881e+03 2.284824597868956062e+03 2.160361668336554885e+03 2.053025157299389775e+03 2.155832700209002269e+03 2.162116912523981682e+03 2.258095387491485781e+03 2.317528391987910254e+03 2.291238055043026634e+03 2.204467028929414482e+03 2.118796991019902634e+03 2.025535822959380084e+03 1.989384039796216712e+03 2.043672598375965435e+03 2.054385317037792447e+03 1.976110667234901030e+03 1.839334943160900821e+03 1.708314759632226014e+03 1.583097952999167774e+03 1.707742656618102274e+03 1.838887209813477057e+03 1.977441179052497773e+03 2.061669178400067267e+03 2.071207666362486179e+03 2.043810471998805951e+03 2.083679861963022176e+03 2.081828660285939804e+03 1.963115332238552583e+03 1.828864707751862625e+03 1.688700459557553359e+03 1.569857146611467215e+03 1.462283650853461495e+03 1.627493015088655056e+03 1.686268381212902341e+03 1.566803690965335591e+03 1.424304300137406699e+03 1.515906626770657340e+03 1.494269106837496565e+03 1.643818675748178975e+03 1.814068605776109052e+03 1.994077850323023540e+03 2.111621198521975202e+03 2.049918151777064850e+03 1.883066835282168086e+03 1.741927359400204068e+03 1.608592127974870891e+03 1.490954341693885908e+03 1.359985506995991955e+03 1.190424719816307743e+03 1.196028085179270647e+03 1.346835230272278523e+03 1.462427485498632450e+03 1.398914310021816846e+03
2.360224723355107471e+03 2.260020793722386315e+03 2.092872320771561590e+03 1.931541500714896529e+03 1.884735341221713725e+03 1.855679316080115086e+03 1.965556039171455041e+03 2.047920322925605205e+03 1.999624829846933380e+03 1.829451277875399910e+03 1.685204245735570566e+03 1.566353692502436388e+03 1.560589562183499993e+03 1.466092727985152351e+03 1.326781449797844516e+03 1.471074120111460388e+03 1.647762051658422479e+03 1.826087531396940904e+03 1.885749805853780799e+03 1.746000183965688393e+03 1.587022647605206885e+03 1.464380908170258408e+03 1.578370241422026083e+03 1.720300390140322861e+03 1.880714382292282608e+03 2.054649602443525964e+03 2.208005690388732546e+03 2.226103482177982642e+03 2.150477193889624687e+03 2.154063300222288944e+03 2.188697361280155746e+03 2.214265312381330205e+03 2.199000295711688523e+03 2.171598281491328180e+03 2.190951909763389267e+03 2.258029722770966600e+03 2.323641312560095230e+03 2.300490506186753009e+03 2.171372444245896531e+03 2.051265699650414263e+03 1.953351614933163319e+03 1.926389887013174075e+03 2.014670100451498229e+03 2.073502108577991294e+03 2.053387985222249881e+03 1.960303906886218101e+03 1.823273205107321701e+03 1.704046835683209338e+03 1.795607970734481341e+03 1.767787583214663528e+03 1.879686512935636756e+03 2.007524622929289308e+03 2.087752292157856118e+03 2.085217887768738365e+03 2.018166250328046317e+03 1.953635088776348312e+03 1.882478187574540925e+03 1.892704285256195817e+03 1.982909032784534247e+03 1.968514922113023431e+03 1.825538488211618414e+03 1.684068094364778517e+03 1.786379812148336214e+03 1.901795472237165086e+03 2.050250054609225572e+03 2.212580362857292130e+03 2.325166000927012192e+03 2.361915869185362681e+03 2.314842217623109718e+03 2.228487438229002692e+03 2.309340699625912293e+03 2.332498414365576537e+03 2.353045681174583024e+03 2.326613887104971127e+03 2.261361445209302474e+03 2.197958696819627676e+03 2.198324177610094921e+03 2.173590456333058228e+03 2.140897715999705269e+03 2.101486172496807285e+03 2.007477126794190099e+03 1.862542481946079761e+03 1.721640400290309799e+03 1.577254663638151442e+03 1.455239317502620452e+03 1.577047240788695262e+03 1.721067942127221841e+03 1.860562837315218530e+03 1.998975509435158529e+03 2.070480532414292156e+03 2.069749424782891310e+03 2.116482739338759075e+03 2.140444042455242652e+03 2.073587085044894138e+03 1.943732545869752812e+03 1.816618423274346469e+03 1.687251207787703152e+03 1.579962471380655188e+03 1.734560385349483795e+03 1.786534825401938861e+03 1.671111995100644435e+03 1.539854515945236926e+03 1.655048800698799596e+03 1.642535961469969607e+03 1.643035563160622360e+03 1.779576908382216061e+03 1.944520055566104702e+03 2.097539006867052194e+03 2.036068060699724128e+03 1.842332727696012171e+03 1.642821521049517969e+03 1.482621272378140930e+03 1.367784768743113773e+03 1.275664477090470882e+03 1.328198072651376151e+03 1.312645684891824430e+03 1.472284190636220501e+03 1.553192357208174371e+03 1.455364488725059346e+03
2.309975468942545831e+03 2.310413026470387194e+03 2.217665091204559303e+03 2.085741477877719262e+03 2.041612875653668425e+03 2.014684806432102960e+03 2.131759031983917794e+03 2.177691680142153018e+03 2.073575451514700035e+03 1.924770416685481223e+03 1.801856036004896850e+03 1.703435501631945726e+03 1.675777671121096319e+03 1.527833295298661824e+03 1.407091997621605287e+03 1.548192901911084846e+03 1.724554437656051732e+03 1.901148515581561696e+03 1.956737729329508511e+03 1.835439641850313819e+03 1.693691938936862243e+03 1.534982384206195093e+03 1.607623124974982829e+03 1.728744624561152932e+03 1.879192372597075064e+03 2.055558016302807573e+03 2.231925714251460704e+03 2.301122476819634812e+03 2.276396455978163431e+03 2.264065156772021055e+03 2.221830293356566472e+03 2.150314473960816031e+03 2.065144786981650668e+03 1.963567612357241160e+03 1.979075736033040585e+03 2.078139064976207010e+03 2.195156966069305781e+03 2.192874412527884942e+03 2.054533349970141444e+03 1.907022658093811515e+03 1.782790273880555105e+03 1.745740118639736693e+03 1.860801544189200968e+03 1.994663675103684000e+03 2.072751328738481789e+03 2.059730450289355758e+03 1.987695323487132100e+03 1.895501562766506595e+03 1.941749603605173661e+03 1.945747476264683200e+03 2.040436744048022774e+03 2.101135606237501634e+03 2.093370197614228800e+03 2.009752293296598509e+03 1.882016470026447450e+03 1.778576484247329518e+03 1.686540435904279093e+03 1.717792923876158056e+03 1.848182938990601542e+03 1.859080003605006141e+03 1.715485320911575855e+03 1.562403610260002324e+03 1.661598304834895089e+03 1.788374514426128371e+03 1.935541695080965155e+03 2.081377104522472564e+03 2.237090498729834053e+03 2.348413297297619465e+03 2.407775692253053421e+03 2.398556511864502227e+03 2.413168013996290938e+03 2.378962518269770953e+03 2.310394263761539150e+03 2.222191157905235286e+03 2.104785593412684193e+03 2.018220813070413669e+03 2.107546770519231814e+03 2.164795679899474635e+03 2.140980115663802735e+03 2.043352061708407746e+03 1.896466709442866431e+03 1.753961001821423451e+03 1.605289310792780043e+03 1.474099271672809891e+03 1.351653551188793017e+03 1.474006821721360438e+03 1.604854641777665620e+03 1.751285332478848431e+03 1.881307911154074645e+03 1.953111283488462504e+03 1.908498170639721593e+03 2.005879895531033071e+03 2.088318867745708303e+03 2.122101391514651823e+03 2.061797768016731425e+03 1.943939217954514561e+03 1.833181987574360846e+03 1.719802362633101438e+03 1.858529462421165135e+03 1.902332422995988736e+03 1.793738316191369677e+03 1.677789497362911789e+03 1.790997861193697872e+03 1.805125959958793601e+03 1.784947289240385999e+03 1.902660225450033522e+03 2.034013250590029884e+03 2.145296570345185501e+03 2.063763712120968194e+03 1.863155175068518929e+03 1.683593363189662341e+03 1.572325747473334786e+03 1.455969851675123209e+03 1.349758780332971810e+03 1.467102989314241540e+03 1.441911866881821652e+03 1.591365280790917041e+03 1.652658659238531982e+03 1.533890884884212483e+03
2.212521185073656852e+03 2.300568996862296899e+03 2.309370938618189484e+03 2.252731339789135291e+03 2.219407222573078343e+03 2.199593159524582006e+03 2.284414432145119463e+03 2.296144204900364002e+03 2.182357092381726943e+03 2.064975812351763125e+03 1.960302827565203643e+03 1.862891421559241962e+03 1.751937154155583585e+03 1.624096129263164357e+03 1.500928768417641777e+03 1.633965245120494046e+03 1.806301836236691088e+03 1.981699207248200764e+03 2.041493347106401643e+03 1.941588583041097536e+03 1.792773806126661611e+03 1.619618731299927276e+03 1.734620766312359137e+03 1.858562264746956089e+03 1.993020312071079616e+03 2.145123711629662466e+03 2.244351744595992841e+03 2.239389253948681471e+03 2.191992114386781395e+03 2.179828306745535883e+03 2.131063783020777919e+03 2.001016957170625346e+03 1.882755202173556881e+03 1.771821547566988102e+03 1.795799378767826511e+03 1.933464164055283618e+03 2.081578058646323370e+03 2.091159882698155343e+03 1.953395979907484161e+03 1.800712512009100010e+03 1.672953653829913037e+03 1.587923426290637735e+03 1.729201793044682518e+03 1.871388562069282216e+03 2.009463803535433954e+03 2.083244907439115195e+03 2.097035542911788525e+03 2.082805078821473217e+03 2.115790631143755036e+03 2.126961126209721442e+03 2.145170514774617459e+03 2.110874778472754315e+03 2.017253771362379894e+03 1.875904821718214407e+03 1.744738051994074794e+03 1.615635341050098077e+03 1.516234076881870124e+03 1.571957646934891500e+03 1.746082546241098726e+03 1.767428450010841971e+03 1.623522261091853125e+03 1.463584467232191173e+03 1.566056980988084433e+03 1.688967526819464410e+03 1.815502142401342326e+03 1.960401762961045506e+03 2.103238565488046788e+03 2.258913005099462680e+03 2.372358589156651306e+03 2.418441057146930234e+03 2.374794886614418374e+03 2.293036185608697906e+03 2.170427753402352209e+03 2.058121423595670421e+03 1.946598553177961094e+03 1.838939082204947454e+03 1.956304009886146559e+03 2.070007361482533724e+03 2.057020830760362060e+03 1.923885062328984532e+03 1.786108565680864331e+03 1.641621714706878265e+03 1.511087870740230983e+03 1.380622893666674372e+03 1.265634547047988235e+03 1.380702568495640435e+03 1.511647352842455803e+03 1.643909787283661672e+03 1.798891803548586267e+03 1.817056596173307753e+03 1.722376659657054006e+03 1.834480633425110227e+03 1.968367826560550157e+03 2.065503561292136055e+03 2.113064278781377652e+03 2.072906133014014358e+03 1.995808185501780599e+03 1.883239960186174130e+03 1.998763626747370608e+03 2.032105888482655018e+03 1.938118656711249741e+03 1.852036012007161389e+03 1.919086935380938939e+03 1.972091703638678382e+03 1.954289023247305749e+03 2.038210859124162653e+03 2.153559323115180632e+03 2.214290247103275306e+03 2.131905551374336028e+03 1.963050843802385771e+03 1.817535010586665294e+03 1.678350522719880701e+03 1.555136169526703497e+03 1.437271375797727387e+03 1.576005643457632004e+03 1.580185930072211931e+03 1.715101104300326597e+03 1.751512262815077065e+03 1.621932720874359347e+03
2.076361434515482870e+03 2.221155812529667401e+03 2.319414850961940374e+03 2.374619462904521242e+03 2.386759401899406384e+03 2.393044277846302521e+03 2.416310733886367871e+03 2.390019500773538766e+03 2.304547053972193225e+03 2.213819529794101982e+03 2.123207505876849609e+03 2.002378615615403305e+03 1.882309510104577157e+03 1.751092389461183302e+03 1.615367659044067750e+03 1.734688439821495422e+03 1.897897548275340569e+03 2.066586860493308905e+03 2.115693888574736775e+03 1.976476473572517534e+03 1.817250793867982793e+03 1.715961999063355051e+03 1.855062651900721676e+03 1.984102201992554683e+03 2.113415073801528706e+03 2.189480528947965013e+03 2.174522053592123939e+03 2.097063679221640996e+03 1.992553875300465279e+03 2.006964215392127244e+03 2.009126381516465017e+03 1.875345341562087469e+03 1.728020396583802949e+03 1.614307211751503019e+03 1.656477887992431079e+03 1.827842485084324380e+03 1.993562860136610198e+03 1.998441376330268440e+03 1.858705270463731722e+03 1.708535533777705268e+03 1.577468926694042693e+03 1.476114166066789267e+03 1.611381569930356591e+03 1.766291805877433035e+03 1.884039565597338651e+03 1.989231925231466676e+03 2.062436393147946546e+03 2.124279634817261922e+03 2.188030756764556827e+03 2.190743826329235162e+03 2.126551418561136416e+03 2.028737877903932940e+03 1.887137779626994870e+03 1.751371164840084248e+03 1.611545759119659806e+03 1.491645260441655637e+03 1.379987172660515398e+03 1.524589074474741437e+03 1.679602020555185163e+03 1.690375539337952659e+03 1.543919166396218770e+03 1.379437606896269017e+03 1.481975459151216228e+03 1.591461486894495920e+03 1.713397747090717758e+03 1.836188375472256439e+03 1.979505620212461508e+03 2.125608826694234267e+03 2.278322277582791230e+03 2.329591922034693653e+03 2.238096168824567485e+03 2.139017679929658698e+03 2.034445426117622446e+03 1.910051121630593116e+03 1.797686550628373880e+03 1.694175053890216077e+03 1.833299685932310240e+03 1.967867932558539223e+03 1.963942938243158551e+03 1.816003698489268345e+03 1.667958919619784638e+03 1.545990322672013917e+03 1.421382606121777826e+03 1.305361554632011803e+03 1.192680068614399033e+03 1.305392196419728862e+03 1.424806656513855614e+03 1.606284322158496707e+03 1.704899637289895963e+03 1.686605298709328281e+03 1.561998190473447039e+03 1.682565832165685606e+03 1.808463586443876920e+03 1.945178784805115811e+03 2.042695963366442811e+03 2.107905330387160575e+03 2.112228309951349274e+03 2.061803226552927299e+03 2.142409591320569234e+03 2.159017806027491588e+03 2.096408687192713387e+03 2.037275239163169999e+03 2.051656738182996833e+03 2.080008684060147971e+03 2.093997829916848332e+03 2.150548668269366317e+03 2.211779507065419239e+03 2.227626942101124314e+03 2.187598408216891130e+03 2.085285751329132836e+03 1.939473400945348430e+03 1.802224294748612238e+03 1.660453538086920162e+03 1.538255026866499293e+03 1.682464285448748569e+03 1.729962105955645256e+03 1.847126642818349183e+03 1.857902423844352143e+03 1.720740180562526575e+03
1.954177555143028712e+03 2.089276064911461617e+03 2.229376357410315904e+03 2.334947883996140717e+03 2.426041069540381613e+03 2.478727883089722127e+03 2.441613001084957432e+03 2.374844957709848131e+03 2.301152762987193000e+03 2.247334247830196091e+03 2.209338222022472110e+03 2.139542368033475668e+03 2.036738183259263678e+03 1.892716080001534237e+03 1.764066156914372186e+03 1.859543337072278746e+03 2.006645681902014985e+03 2.163510989831795996e+03 2.202093607603964301e+03 2.074328252081859318e+03 1.938109449069115044e+03 1.835767714240708756e+03 1.971954806206580542e+03 2.105443919062624445e+03 2.173702368636452775e+03 2.146005806417449548e+03 2.053675508513310888e+03 1.918625554560800538e+03 1.802335762270779469e+03 1.835252765457455780e+03 1.887948344297045196e+03 1.774802914092176934e+03 1.618312553670941952e+03 1.488311524687355814e+03 1.651867354934947571e+03 1.809397750666956199e+03 1.933402506466212117e+03 1.921182691590024888e+03 1.758128834785566596e+03 1.619102083446982761e+03 1.493693200609384121e+03 1.386926355730162868e+03 1.522896972056878894e+03 1.688624735388296813e+03 1.727393375973513002e+03 1.822593606396788118e+03 1.908309242790129929e+03 2.006859523431196976e+03 2.123185174123676006e+03 2.124907745239966061e+03 2.007560516038087826e+03 1.887719957228641761e+03 1.763468285783161036e+03 1.627019339525515306e+03 1.504187820276385082e+03 1.383436287528873663e+03 1.281043348938390409e+03 1.465035214512334733e+03 1.603375283711912289e+03 1.615305017855169581e+03 1.470500089591042070e+03 1.305013486258545299e+03 1.402038770703226646e+03 1.508463460048595152e+03 1.611951750849590326e+03 1.728537773810396629e+03 1.854898687120169143e+03 2.015408098668648790e+03 2.180257644163290479e+03 2.227760499833911126e+03 2.111622221264607560e+03 1.984819816501996229e+03 1.892127597000936248e+03 1.801875499946633227e+03 1.679394381787823249e+03 1.578563253891829163e+03 1.729409576917923687e+03 1.872203004866268884e+03 1.883243279707663760e+03 1.726033445232245867e+03 1.556360724157412960e+03 1.447717216887468339e+03 1.345084946856617307e+03 1.234537320586766555e+03 1.129245859704779605e+03 1.234223291032463521e+03 1.401988619996382113e+03 1.545996040310963053e+03 1.559563442735069430e+03 1.557825193262598987e+03 1.429353492311480977e+03 1.539944189419106124e+03 1.665178607442060411e+03 1.780395453684669974e+03 1.898708876727861707e+03 2.038995948480210927e+03 2.145811435366860678e+03 2.206877335734569442e+03 2.245890160385704803e+03 2.213597929923765150e+03 2.129761732044239125e+03 2.050049071870899752e+03 1.999038343727104802e+03 1.984827341540271846e+03 2.018482465636276174e+03 2.081210410957508429e+03 2.108389677932539144e+03 2.097661600131669729e+03 2.151553211219967579e+03 2.148768889168823534e+03 2.065488726004655291e+03 1.925993578781979977e+03 1.791237550150244033e+03 1.659545722300314310e+03 1.772113749153724257e+03 1.888670163105877691e+03 1.986756293552693023e+03 1.974085644315750415e+03 1.833985406575130355e+03
1.831913042737229944e+03 1.961505589109785660e+03 2.075844164972857925e+03 2.200494737085808538e+03 2.355838769922468146e+03 2.419433354320644412e+03 2.330933823681723879e+03 2.231931866599250498e+03 2.138584740593511469e+03 2.100652080555190878e+03 2.159034970975625129e+03 2.197878217958213099e+03 2.155417150396172019e+03 2.068834782192708190e+03 1.967044597241742622e+03 2.021370474000887953e+03 2.141660047135558216e+03 2.277868823944485939e+03 2.308961607879473377e+03 2.193927239568653931e+03 2.071489009315803742e+03 1.985169904410597155e+03 2.106311486046276059e+03 2.173347444100290886e+03 2.142705508266673405e+03 2.043083777642198584e+03 1.899263122897579933e+03 1.767682288469363584e+03 1.641744581189348310e+03 1.679024874040155510e+03 1.770705043538478094e+03 1.707722283317065148e+03 1.530683679485298171e+03 1.395613202776922208e+03 1.555774173557307904e+03 1.711960495502728691e+03 1.857242742121172796e+03 1.856820596873098793e+03 1.697371617945472053e+03 1.521178166495504456e+03 1.413886968950539085e+03 1.311792907479879659e+03 1.488149264002449399e+03 1.608444061480990513e+03 1.581673912715736606e+03 1.654053015848043287e+03 1.748416798001046118e+03 1.884301665252942939e+03 2.041233845210857908e+03 2.034303809134351923e+03 1.895528855650911964e+03 1.752339266357139195e+03 1.635791638885386874e+03 1.523599457500304425e+03 1.404397554632253105e+03 1.295656162466512569e+03 1.193999293221351081e+03 1.364985993224930326e+03 1.518590385589127663e+03 1.536279224346771571e+03 1.400468319711890899e+03 1.239703926615616183e+03 1.333360874393380300e+03 1.424558585472305367e+03 1.519679896532486737e+03 1.620881935018989225e+03 1.753416384573202777e+03 1.918935428663240373e+03 2.092541648253652056e+03 2.145724114763246234e+03 1.999926974040367213e+03 1.859523446697367945e+03 1.749270762692073504e+03 1.733351863804221921e+03 1.593975053049196731e+03 1.483026966782617819e+03 1.634814134404286278e+03 1.774530100591070777e+03 1.823253866552074442e+03 1.719906647732711008e+03 1.536814106839226497e+03 1.357087420463774379e+03 1.266298597135481941e+03 1.173061767464330842e+03 1.074653838732666600e+03 1.246548677129578891e+03 1.386376990638182860e+03 1.447162203416035481e+03 1.396629984823227915e+03 1.431450778608416158e+03 1.319039408851601365e+03 1.422921642386531630e+03 1.520845617444197387e+03 1.627716507234662004e+03 1.764478251914025805e+03 1.913572731618882699e+03 2.085781816020476526e+03 2.208461151245805468e+03 2.227880272158853131e+03 2.144718171469822664e+03 2.012784430354546657e+03 1.904929330046065388e+03 1.811486854528344566e+03 1.775979221463312342e+03 1.825177537237128490e+03 1.933677804992564006e+03 1.926855334856384388e+03 1.912401645715351151e+03 2.033126501293802676e+03 2.120675605613202606e+03 2.139753722578364886e+03 2.065084285535615436e+03 1.932326191622989199e+03 1.813948676426770362e+03 1.921644377029789439e+03 2.027938599425367102e+03 2.124232584013129781e+03 2.098329603440205574e+03 1.965652573851797115e+03
1.727390525148512324e+03 1.824402067596135339e+03 1.916019154411989575e+03 2.091578657543621375e+03 2.275343717615104651e+03 2.334289182185026220e+03 2.221029233108485187e+03 2.085310967811942191e+03 1.981193277468732049e+03 1.905148415301274326e+03 2.017621745905912348e+03 2.140716060246146299e+03 2.212082939833970158e+03 2.209792881368952749e+03 2.182142256447855743e+03 2.227424148500051160e+03 2.312034260045885731e+03 2.403149354703210065e+03 2.426002672722861462e+03 2.330213286017948576e+03 2.238516636860081690e+03 2.163330332421346611e+03 2.205694364425367439e+03 2.165152076711510290e+03 2.052527464772515941e+03 1.899658319190730708e+03 1.764187103722416396e+03 1.628398630957510932e+03 1.511271577171483614e+03 1.546192570832639603e+03 1.662708960901157297e+03 1.640812456074832653e+03 1.497335159060502519e+03 1.314707497624272719e+03 1.459249784718200317e+03 1.627282407678843128e+03 1.785105463782256038e+03 1.805665556250175314e+03 1.656499140426090889e+03 1.484185018589839274e+03 1.329793612460975737e+03 1.243091765658301256e+03 1.402691406135749958e+03 1.507815581098190023e+03 1.458185790985906806e+03 1.500572160393875265e+03 1.638725995851541484e+03 1.822700024998770004e+03 1.975851838455819234e+03 1.946049473883744213e+03 1.792636734899339217e+03 1.641716371565149302e+03 1.521339139699604857e+03 1.422380162875248743e+03 1.322108583680505035e+03 1.214823831065431250e+03 1.117665793372417738e+03 1.283287126047732954e+03 1.432476182576937390e+03 1.443595080218064368e+03 1.326979675295724974e+03 1.180693336274371177e+03 1.263699266717929731e+03 1.342016641385228922e+03 1.423588685684643224e+03 1.527525562069075249e+03 1.661749740883189816e+03 1.825615277834634526e+03 2.025343852816291928e+03 2.097309036058152742e+03 1.944877475884392652e+03 1.765769427596391324e+03 1.629514540739700806e+03 1.627578205076523545e+03 1.524369095951561576e+03 1.400652048847031665e+03 1.533731379333030191e+03 1.637751108454024461e+03 1.722703401458453300e+03 1.686565763411465014e+03 1.527736346126395119e+03 1.348490499322961568e+03 1.188586006541179358e+03 1.110073435622995021e+03 1.021920831720113142e+03 1.177010937364728079e+03 1.284307840262842319e+03 1.311953551629685307e+03 1.224902220493722552e+03 1.292403678458373633e+03 1.229122426477444833e+03 1.306417202079326671e+03 1.396769028395010537e+03 1.506299559535517346e+03 1.641081211130793235e+03 1.806667233450489903e+03 1.994851352293891523e+03 2.153632618218588959e+03 2.146993818820256820e+03 2.018002914520038757e+03 1.884662545761678984e+03 1.753462344804901704e+03 1.650440257094845265e+03 1.566020279927903175e+03 1.680423572879963785e+03 1.785788897952496882e+03 1.748942043198273495e+03 1.738608074008942140e+03 1.872630012902574890e+03 2.028190900759411761e+03 2.140541179366196502e+03 2.167223949989635912e+03 2.099041007324515249e+03 2.000305155604915853e+03 2.098922946185808087e+03 2.183211044540335934e+03 2.246253085261734668e+03 2.221257910948194422e+03 2.116589189466975313e+03
1.620082420180598774e+03 1.697505684922435876e+03 1.877754160695305927e+03 2.065014246830794036e+03 2.214607662014640027e+03 2.253579581109937862e+03 2.127222240787687497e+03 1.974750706927291503e+03 1.846940321579209240e+03 1.756070548078963157e+03 1.888612423786722275e+03 2.018742358650424649e+03 2.159867741711846520e+03 2.249953434656016270e+03 2.270604360567574076e+03 2.325353934945613219e+03 2.404053779725884851e+03 2.489395862452393430e+03 2.522347772040639938e+03 2.474096804163841171e+03 2.399338501806611021e+03 2.320925801132771085e+03 2.240963244312986717e+03 2.101273482438988140e+03 1.922483835471385646e+03 1.769767533578895382e+03 1.629189325364089200e+03 1.515622330436323637e+03 1.403599921690957217e+03 1.429345920076912762e+03 1.557905243092164937e+03 1.555416146703608774e+03 1.408321087895702249e+03 1.239605886528653400e+03 1.380311697362443056e+03 1.547532871326841587e+03 1.717012575886649756e+03 1.761742305399719271e+03 1.628260668113961401e+03 1.463911070598671813e+03 1.310339886643794216e+03 1.183672820882332417e+03 1.338789940842477790e+03 1.375511773293806755e+03 1.349633724412940410e+03 1.474315106455359683e+03 1.632785838681568976e+03 1.812888730696815401e+03 1.937685824027466197e+03 1.863760358023147091e+03 1.694212246795615101e+03 1.537568346349384910e+03 1.418787369361640458e+03 1.329384544182872105e+03 1.242288002727299954e+03 1.147497257492248309e+03 1.051364391564344032e+03 1.202502917366271049e+03 1.341488538581399780e+03 1.324861904735907046e+03 1.222548371465379432e+03 1.129045198736109114e+03 1.187802052104512541e+03 1.255737733828608270e+03 1.337913898615885046e+03 1.441698702220421865e+03 1.580684935206902765e+03 1.780583600622177073e+03 2.005796510682662074e+03 2.118813914334058609e+03 2.016299734869904796e+03 1.852152335193552290e+03 1.665419990409661978e+03 1.490257664267305245e+03 1.401978340667327302e+03 1.328796179085924223e+03 1.400234390239972527e+03 1.496434152671704396e+03 1.596550472774833452e+03 1.629078461808142947e+03 1.543027663058014696e+03 1.371551325914527752e+03 1.199383666636787439e+03 1.048309974719357569e+03 9.739901173681797673e+02 1.111900190490300474e+03 1.121770734497919648e+03 1.159670318964061835e+03 1.079199709069026994e+03 1.142918404550571722e+03 1.311492948458831279e+03 1.439464260313343857e+03 1.520686939600695496e+03 1.642159408164400702e+03 1.773296816217791957e+03 1.930207459101870427e+03 2.057027878182068434e+03 2.120606580230155487e+03 2.055749941890856007e+03 1.909014406370290089e+03 1.758146901575829588e+03 1.633348027314864339e+03 1.518469178708043046e+03 1.426419405346674239e+03 1.555979100292478051e+03 1.636319319658521636e+03 1.587102952721181737e+03 1.592436326407102570e+03 1.733040635081597202e+03 1.901626235933975067e+03 2.084120959061181566e+03 2.220382134468455661e+03 2.221372693057208380e+03 2.185647441711340889e+03 2.217493588517461831e+03 2.252711821158336534e+03 2.299986716824081668e+03 2.306297861923266737e+03 2.271709682938604146e+03
1.516122089542657250e+03 1.681165400473552609e+03 1.848337093037623845e+03 1.978481703543554886e+03 2.128771650716654221e+03 2.172247627283965812e+03 2.044390818016012645e+03 1.886176183893500820e+03 1.747625590405494222e+03 1.642542301937781758e+03 1.764489547032184873e+03 1.891684205220151398e+03 2.061282796331853660e+03 2.169847611804673761e+03 2.138510160672531129e+03 2.210326931422240250e+03 2.306849778920332028e+03 2.431658483972090835e+03 2.513748635126945373e+03 2.508100180508084122e+03 2.429815973059265161e+03 2.334105381935942660e+03 2.199904361112134211e+03 2.007197650844307418e+03 1.812826835796628984e+03 1.647048993236330034e+03 1.513991637810670909e+03 1.405317112065436049e+03 1.315545416307368441e+03 1.323022121144309722e+03 1.450852620076888570e+03 1.464437839093110142e+03 1.332390303486317407e+03 1.171510950930911804e+03 1.296535131192493736e+03 1.469275037983511311e+03 1.652802194551095226e+03 1.708723607334941789e+03 1.601309429739198094e+03 1.456926085500083218e+03 1.289806207023588513e+03 1.127719996244087270e+03 1.251160554957195245e+03 1.236712810177561551e+03 1.383987063200068405e+03 1.557082408622688035e+03 1.716286087246217903e+03 1.866299382551422468e+03 1.898825830068144796e+03 1.777742639953261005e+03 1.595449106000163965e+03 1.435835576285209072e+03 1.313121605386690590e+03 1.230459778294394710e+03 1.172722427312948639e+03 1.082982605560137017e+03 9.933059644410390092e+02 1.159040577904876272e+03 1.228984622200552849e+03 1.180505908098242116e+03 1.071543723319700348e+03 1.219243984261214337e+03 1.323452245709361478e+03 1.374154518804112513e+03 1.463620179844346239e+03 1.567347164607753712e+03 1.707110677962738464e+03 1.870318666823848844e+03 2.059414900211335407e+03 2.151714863849131234e+03 2.035650625658839317e+03 1.865665190910916408e+03 1.704615875006719534e+03 1.607239744693144303e+03 1.551581654767284363e+03 1.414643774491724798e+03 1.258584611503900305e+03 1.339517320225678532e+03 1.427108423918958579e+03 1.516488829837395315e+03 1.516829618716895538e+03 1.384743952750111248e+03 1.216588767915413200e+03 1.062793733385726455e+03 9.326933836845813630e+02 1.004244657184665130e+03 9.433530780302277208e+02 1.000322601155372922e+03 1.162603392900409972e+03 1.293520140675743733e+03 1.325765373124312873e+03 1.468432546049734583e+03 1.630480166554913467e+03 1.770299008300033165e+03 1.912957590777005862e+03 2.017007697704427528e+03 2.067923051238263724e+03 2.030721433266251552e+03 1.928623132707280774e+03 1.804387391052935527e+03 1.658248405580344524e+03 1.526495272183162797e+03 1.417659903558015685e+03 1.320867081920807777e+03 1.458882384385181240e+03 1.473411615179544015e+03 1.442066601145614186e+03 1.567009853453782853e+03 1.714743122197456387e+03 1.885892182893826657e+03 2.069411542540071878e+03 2.213165819913963787e+03 2.229897875045646742e+03 2.205917245420820564e+03 2.180160295197518280e+03 2.122618553321606214e+03 2.202207305669113339e+03 2.248006717686315369e+03 2.287910327906329258e+03
1.520785459425069121e+03 1.644563812799919788e+03 1.727358903399689098e+03 1.870902512631525042e+03 2.039495414916384789e+03 2.091931302771899936e+03 1.967068779461311124e+03 1.809165606505340065e+03 1.666601769713083058e+03 1.552213426409153726e+03 1.662635789851748996e+03 1.840872972146454686e+03 2.007900372085555546e+03 2.058467106827627049e+03 1.970564451565462150e+03 2.057771163610113945e+03 2.177164576776609465e+03 2.302868173719255992e+03 2.427771128200254225e+03 2.428299458720008715e+03 2.316573263717085410e+03 2.216335900124992349e+03 2.128382518496377998e+03 2.055806668933702895e+03 1.928208240960632793e+03 1.769417971523670758e+03 1.648890286667260398e+03 1.520334346696713965e+03 1.369884191067944357e+03 1.226853701487159469e+03 1.316034955624902295e+03 1.348516578285099740e+03 1.259201647972618275e+03 1.110721037026398562e+03 1.289571966931216593e+03 1.458921678775637019e+03 1.610475517216044409e+03 1.648695083392830611e+03 1.503692087461693291e+03 1.343687827710155716e+03 1.240717846376407579e+03 1.073679252881645652e+03 1.125045040956910725e+03 1.286360480376461283e+03 1.481099567629016974e+03 1.649559517177788393e+03 1.797429163476065924e+03 1.901851333160957665e+03 1.861490533957889738e+03 1.678174704534777902e+03 1.491898634733003291e+03 1.336479679941050563e+03 1.214047541982298299e+03 1.118535815528386138e+03 1.128020249649223160e+03 1.030556839939893280e+03 9.383180479095423152e+02 1.084805063635805254e+03 1.094019990260196437e+03 1.002074081459879153e+03 1.093390176324720869e+03 1.210816702510045388e+03 1.342720952851477250e+03 1.480563772857155755e+03 1.590730479676336699e+03 1.713039953046955816e+03 1.843077891834186403e+03 2.000332958775637053e+03 2.124735416928882387e+03 2.177499055995249819e+03 2.092909977131523647e+03 1.987924914641252599e+03 1.878702246965273616e+03 1.756593775176539793e+03 1.644118454935651243e+03 1.493002715824330380e+03 1.335914023263215540e+03 1.174036467071824291e+03 1.265890990503356761e+03 1.373648906999230576e+03 1.434387964255186034e+03 1.414053837141645090e+03 1.311613494797259591e+03 1.178689886601731359e+03 1.031303595687245888e+03 8.692463572671335896e+02 1.013269469667184126e+03 1.135980621946727979e+03 1.262844457397548240e+03 1.400006216214365168e+03 1.485577259383278033e+03 1.594929413058164982e+03 1.735313835944598395e+03 1.892419875176326059e+03 1.996775606714601281e+03 2.029586938447997227e+03 1.979916249966771829e+03 1.878551016282573073e+03 1.787676243941720031e+03 1.699333198845806464e+03 1.568361539324769865e+03 1.441185707808252801e+03 1.329131323424243874e+03 1.233328619537753639e+03 1.343172011179157835e+03 1.318150418729095691e+03 1.437263830733039413e+03 1.574792412968071858e+03 1.733189842105876096e+03 1.912356726262759366e+03 2.084746431012178164e+03 2.149567851954480375e+03 2.099577039695031544e+03 2.065820908789553869e+03 2.047459515398348458e+03 1.948620555005121332e+03 2.054674045613708131e+03 2.083344036957946628e+03 2.162735790481614458e+03
1.428911494820036751e+03 1.495354873189536875e+03 1.599532041869599425e+03 1.775383705263004686e+03 1.964517403724489441e+03 2.015450186264539070e+03 1.889632090812464185e+03 1.736823346897881720e+03 1.595088078857075288e+03 1.478091396338269078e+03 1.650980924575139625e+03 1.809359952568787776e+03 1.938611251590021084e+03 1.948532749755450141e+03 1.829214344991522239e+03 1.927755442062754128e+03 2.042255220620605769e+03 2.189655924087510812e+03 2.333667293943973164e+03 2.325518182780038387e+03 2.192398177947361091e+03 2.064649082661387183e+03 1.980722701481471631e+03 2.038748610330837892e+03 1.998665738013413602e+03 1.867178999451723712e+03 1.676196137806019124e+03 1.504004846412100278e+03 1.359668956268767943e+03 1.236956132597970964e+03 1.138477435385062563e+03 1.196319337386171355e+03 1.192117617365387787e+03 1.051139088912575971e+03 1.193702316897510173e+03 1.369622493630061172e+03 1.552372473160234904e+03 1.604475558617963088e+03 1.465020053378733564e+03 1.294524593199828587e+03 1.136623141406866353e+03 1.027300454356465480e+03 1.200084698557242973e+03 1.363956920161890594e+03 1.518639463007208633e+03 1.662278654058358370e+03 1.791702787725155304e+03 1.889656807113777631e+03 1.860770663254348619e+03 1.697376315444164675e+03 1.516314243270023098e+03 1.361014609218440000e+03 1.227855620790702460e+03 1.109249120958483672e+03 1.004849750660698760e+03 1.004334182812856056e+03 8.880012529473715404e+02 9.885797218820189300e+02 9.354263339368748120e+02 1.095447487442974762e+03 1.229764263987095092e+03 1.349198580674935101e+03 1.473520511153827329e+03 1.602973726439179018e+03 1.729002945419897287e+03 1.850993870487109461e+03 1.990202993271502692e+03 2.094277698384845280e+03 2.145050965446288956e+03 2.106895802684961836e+03 2.028213565561801261e+03 2.035561818892836754e+03 1.974709687710409753e+03 1.835427564164501291e+03 1.634848057244500524e+03 1.450350436048757956e+03 1.300823357303861258e+03 1.181464534439289537e+03 1.095569036096365380e+03 1.196788779145151011e+03 1.298031646351512563e+03 1.348819319032483691e+03 1.317995252140113280e+03 1.191255112452482763e+03 1.021926771906466911e+03 8.315431014162516021e+02 9.550849956553133779e+02 1.096526231304858584e+03 1.253614568301980171e+03 1.425316024105497263e+03 1.591552677224616446e+03 1.724152474732630935e+03 1.848154147902980185e+03 1.961591050680516219e+03 2.005306774957629159e+03 1.947618693253487891e+03 1.831865059047180466e+03 1.724468049970951597e+03 1.623038898045216683e+03 1.636370442538422367e+03 1.494915634121214453e+03 1.355229430745084983e+03 1.258001155046174972e+03 1.159188379540821416e+03 1.202522026344603319e+03 1.353410037300260456e+03 1.454023315258690673e+03 1.590221021524545904e+03 1.751586023389717639e+03 1.926490446610817799e+03 2.064216947411812725e+03 2.048525641963038652e+03 1.939852090302430270e+03 1.901956101167945917e+03 1.903042251351948153e+03 1.793785830087071872e+03 1.910597101424602897e+03 1.926943515628219075e+03 2.042992693483164203e+03
1.283153655815680622e+03 1.396044079735424248e+03 1.569532322905373576e+03 1.757545767695904260e+03 1.931257294268474652e+03 1.954848253483920416e+03 1.802837010245960073e+03 1.661866557220105960e+03 1.528402326211323270e+03 1.409944150950069798e+03 1.545245794640777376e+03 1.706999205276555813e+03 1.847847104011825195e+03 1.837873318459057600e+03 1.713478447611943238e+03 1.811600107840290548e+03 1.928308659425390488e+03 2.100592219882701102e+03 2.254864305549957407e+03 2.226304436219624677e+03 2.077807134944866903e+03 1.933187341232281369e+03 1.831141866383251227e+03 1.959043113109782325e+03 2.016689531817364013e+03 1.932410665437352236e+03 1.763956576362788155e+03 1.623352504833169178e+03 1.481040142025014802e+03 1.346987178498798357e+03 1.194691624260741264e+03 1.051534169388640294e+03 1.097614765750602146e+03 9.983661324526549379e+02 1.183271964200180264e+03 1.359165623015967640e+03 1.518085562918113737e+03 1.573961032173730246e+03 1.443604522316791417e+03 1.276848247863527149e+03 1.119607380802415264e+03 9.885394252296650848e+02 1.174307284175328959e+03 1.324283790370531506e+03 1.429461250194681043e+03 1.551157421427191139e+03 1.687517265473634779e+03 1.829816704726272746e+03 1.853909325313007230e+03 1.744871332928530137e+03 1.613734045049223823e+03 1.488035955462356242e+03 1.366005810348080331e+03 1.228376086009676783e+03 1.059637875732587645e+03 8.999086984194556180e+02 8.407294964523528051e+02 8.661401749352836532e+02 1.041514122116611816e+03 1.201375426043602147e+03 1.355010469219842435e+03 1.494435341406461021e+03 1.622146079643374833e+03 1.745168709027383329e+03 1.867118245866768120e+03 1.984575613633751573e+03 2.084424390437677630e+03 2.121411297444972661e+03 2.066515561821089705e+03 1.955951301682699523e+03 1.860210418354833337e+03 1.952529681919097357e+03 1.991460686152727021e+03 1.898419736625198539e+03 1.722358276032856793e+03 1.558454094977337263e+03 1.406363240043506948e+03 1.283718044140869324e+03 1.152917577204651252e+03 1.026735025848057148e+03 1.123839766716244640e+03 1.216008331715121358e+03 1.240590154202190206e+03 1.120174901665146990e+03 9.480780539286599833e+02 7.994320470890056640e+02 9.345055582939482974e+02 1.092395277355438111e+03 1.264021871939569337e+03 1.440904926203380910e+03 1.594957869029178255e+03 1.726579229405112528e+03 1.851443691594214442e+03 1.949688665863086044e+03 1.932725828184549528e+03 1.813687249125358903e+03 1.692702632630988774e+03 1.570867220572731412e+03 1.475220905430936455e+03 1.561577406585518929e+03 1.516215752595869390e+03 1.364944724452293485e+03 1.196136527946576962e+03 1.101005872782768165e+03 1.229070312617648369e+03 1.292383280564146162e+03 1.434740017526922657e+03 1.597139073285871291e+03 1.776113556320782891e+03 1.940376791729708430e+03 2.000432156324543257e+03 1.944411485003533926e+03 1.797918425487765262e+03 1.748798651541592335e+03 1.765968328126261895e+03 1.662209733650703356e+03 1.776272678723291619e+03 1.800564251099905277e+03 1.965688921781613089e+03
1.319360580861537528e+03 1.491708072315196432e+03 1.616923463100886238e+03 1.781280817290286450e+03 1.925145056479941104e+03 1.913834342266838576e+03 1.751561448101673477e+03 1.574419566699129291e+03 1.461456470816515093e+03 1.349817386711476956e+03 1.514352743702552516e+03 1.671184717244283775e+03 1.734479050810293074e+03 1.696611159529440556e+03 1.617744317025992359e+03 1.731082743510369482e+03 1.910555436942020606e+03 2.108000116177581731e+03 2.207199603885066608e+03 2.131914366640839489e+03 1.972900528619285296e+03 1.819403918183114683e+03 1.703144396391218152e+03 1.843998552547522195e+03 1.970458888060275967e+03 1.969872203861051048e+03 1.839966855938283743e+03 1.649047125683522381e+03 1.475300971047266103e+03 1.323408904639157072e+03 1.187734241763260570e+03 1.069249541385609064e+03 9.713285712972102601e+02 9.451663862364183615e+02 1.091584720719670486e+03 1.272090016913975205e+03 1.463450326466653223e+03 1.537128832808695279e+03 1.434262998199655840e+03 1.284124403298062816e+03 1.112645102881126604e+03 9.487899869868389260e+02 1.090447414715837567e+03 1.193357760329683515e+03 1.299823180164900805e+03 1.427469537608847986e+03 1.591464740586287689e+03 1.755098621322873669e+03 1.781664953517748700e+03 1.673076239853082825e+03 1.591697784770400176e+03 1.506145101484728457e+03 1.411157847368553803e+03 1.251099159519991190e+03 1.079648758175998637e+03 9.281138503064632914e+02 8.077658239762640733e+02 9.541519607990820759e+02 1.064227664116079040e+03 1.220422948865935496e+03 1.386654987993583973e+03 1.547998874944027875e+03 1.681344572335402290e+03 1.793129484365808821e+03 1.905753489810237852e+03 2.021789963971973293e+03 2.100567239435396914e+03 2.053224868238390627e+03 1.931380964893060082e+03 1.810581217132724532e+03 1.695797287626459593e+03 1.817008000974721426e+03 1.936178971716565911e+03 1.941608611340155448e+03 1.834794582098183128e+03 1.673479055481666819e+03 1.526368563797539082e+03 1.376184543508855086e+03 1.237917344852746282e+03 1.098685886145925224e+03 9.564812788480221570e+02 1.048742031663871103e+03 1.123630540536378703e+03 1.087629575147366495e+03 9.348325115533132248e+02 7.704714216148101968e+02 9.360592185880249190e+02 1.110683202439909110e+03 1.255490080507088805e+03 1.360657804544903456e+03 1.477368034128949603e+03 1.602869930536774064e+03 1.741507650512910686e+03 1.869787976260213100e+03 1.833668271358227912e+03 1.695766254502320862e+03 1.557706701865795367e+03 1.444257527728064815e+03 1.344193200044246169e+03 1.468340003937712709e+03 1.484940842587792304e+03 1.376670847851542931e+03 1.213667045098373819e+03 1.055835339976987143e+03 1.141091876061871517e+03 1.283867588541243094e+03 1.446401729258633623e+03 1.624877116201104172e+03 1.803918870404750578e+03 1.908572879046487060e+03 1.883712750889481867e+03 1.800279290156531943e+03 1.749088896370837801e+03 1.609310944571327127e+03 1.619741326986184276e+03 1.549503630109410778e+03 1.621390442358120254e+03 1.785664000033582852e+03 1.919814911608492594e+03
1.355074312979501201e+03 1.515757062091097396e+03 1.660427024136396085e+03 1.796406965934173286e+03 1.903010027889659568e+03 1.881730270298917048e+03 1.719671797971410797e+03 1.543000088252561682e+03 1.386470889688392845e+03 1.294189178360048572e+03 1.473561694089861930e+03 1.580231760558163160e+03 1.578214442228491862e+03 1.510756149256866820e+03 1.656831141300807076e+03 1.822536529885682057e+03 1.979766415516994357e+03 2.132059618640385906e+03 2.147603975772276044e+03 2.016885818475871929e+03 1.869457686188438629e+03 1.718400659335499540e+03 1.594907582080589918e+03 1.747771735889061574e+03 1.900529321464488021e+03 1.966846693124546391e+03 1.884423463274576307e+03 1.738807470181003737e+03 1.591874493689240580e+03 1.456986300431236714e+03 1.330539015388410007e+03 1.204322702649386429e+03 1.063448352806877438e+03 9.055739410457541680e+02 1.091884685079824521e+03 1.272486048777845554e+03 1.433317213070500657e+03 1.487453694159789393e+03 1.348967549817471763e+03 1.190327330695785804e+03 1.079279442759336234e+03 9.096386829083322709e+02 9.819927831629862567e+02 1.077791713449547615e+03 1.192908777680951061e+03 1.335303099438375284e+03 1.511852386129528213e+03 1.693226183969672093e+03 1.698617223270390468e+03 1.555130508722536206e+03 1.432640234603096360e+03 1.363433833740351474e+03 1.374771251291455428e+03 1.269063536869042991e+03 1.097718426870253097e+03 9.280166315163478430e+02 7.817762151362178429e+02 9.314746206177458134e+02 1.093813447987002064e+03 1.260097072062102143e+03 1.395784113106861241e+03 1.486047689185411627e+03 1.580140854398078545e+03 1.678201562195871929e+03 1.795939705604600022e+03 1.947723618082811754e+03 2.027603583178789904e+03 1.934450475190650195e+03 1.808068585093745241e+03 1.671805509228082428e+03 1.558656876822707090e+03 1.702333488537105495e+03 1.857012218212008293e+03 1.942864385079397380e+03 1.913871116937777288e+03 1.799522465625813766e+03 1.639096058514812512e+03 1.493372508055470462e+03 1.348969644729247420e+03 1.195751620258626872e+03 1.034985349715710072e+03 8.876802981438484039e+02 9.882178719647198477e+02 1.015770778766470130e+03 9.158265297350251330e+02 7.397192384858909691e+02 9.136438237370834941e+02 1.037518474718016932e+03 1.131246126510881140e+03 1.228182017895053605e+03 1.335659349861003875e+03 1.467192525112835483e+03 1.637420240326219528e+03 1.786744271780749159e+03 1.729627499856309896e+03 1.585721365506322172e+03 1.449417791303455942e+03 1.330905514039550326e+03 1.233108851937324744e+03 1.352789932415759495e+03 1.381608513132696316e+03 1.301110211886794787e+03 1.191056747793682007e+03 1.014881107376067803e+03 1.154151814446742037e+03 1.314471857611614041e+03 1.484926277689583003e+03 1.647319787980282854e+03 1.785292712484936601e+03 1.815338159851783303e+03 1.724030434668816270e+03 1.629141656525630196e+03 1.647370187245784791e+03 1.568753493904842117e+03 1.452603577579941657e+03 1.463116687563968753e+03 1.631395952069618033e+03 1.801523298402490127e+03 1.868156047126550675e+03
1.269534773569350136e+03 1.433275365740474172e+03 1.569002062912423526e+03 1.696773774654213867e+03 1.838899429421195009e+03 1.847821503558976019e+03 1.701793708658898140e+03 1.531453871902322817e+03 1.374282752701137724e+03 1.242096178370709140e+03 1.400245241828928101e+03 1.432428986185310350e+03 1.396358250451817867e+03 1.534925908645341224e+03 1.705132583197435679e+03 1.900981081489479038e+03 2.053871498992127272e+03 2.142751762721758496e+03 2.085069599890522113e+03 1.924050726127428788e+03 1.761878339251282569e+03 1.625323171809867972e+03 1.501304184541536642e+03 1.653574051873361668e+03 1.794307777278142794e+03 1.904917399811725090e+03 1.856175263072344478e+03 1.729334402633556238e+03 1.602610445900892273e+03 1.489009256430926825e+03 1.370240173947482390e+03 1.222041289253292234e+03 1.042416129596374503e+03 8.685047597804291399e+02 1.011741266785057633e+03 1.191523328002287144e+03 1.382011661300038213e+03 1.452209239439855310e+03 1.322964697990641298e+03 1.153876639589391971e+03 9.903249172473769022e+02 8.751773339775455725e+02 1.026070052125301572e+03 1.189111330315626219e+03 1.324529788269867367e+03 1.457411233600498917e+03 1.594840128665273596e+03 1.700661753149338665e+03 1.640476381396571469e+03 1.454384366405265382e+03 1.282692556366112740e+03 1.198595499437782337e+03 1.256988032182423467e+03 1.224811980492127304e+03 1.096235192002480744e+03 9.222197906747580873e+02 7.557106142059021749e+02 9.209478168238113085e+02 1.086035324113281604e+03 1.195981677489751746e+03 1.275801967325179930e+03 1.353436974342067742e+03 1.435368548551266713e+03 1.530813717123308834e+03 1.673698821053865004e+03 1.853062165537543933e+03 1.941639680546205454e+03 1.836084711879502947e+03 1.690496955217981395e+03 1.561739288541258247e+03 1.445786094578660368e+03 1.594592022389145086e+03 1.742280138963765467e+03 1.883608402395056373e+03 1.946570924503397009e+03 1.879955368645426688e+03 1.755406668847594574e+03 1.617612853403492863e+03 1.468457994837277283e+03 1.293378163604998235e+03 1.136843103464922706e+03 9.836383367111483267e+02 8.189359274431967606e+02 8.979771138709107845e+02 8.641362282205077463e+02 7.071189829271820599e+02 8.310461406876505635e+02 9.210425817102478732e+02 1.008840236851570353e+03 1.105204740457801790e+03 1.201634355473960341e+03 1.370844978305019367e+03 1.598243123678405709e+03 1.721635555489893022e+03 1.629674515786180109e+03 1.480222186355876602e+03 1.343704890960980038e+03 1.241654255483996849e+03 1.140167609095273747e+03 1.190775124376616304e+03 1.230526710031947687e+03 1.163931469261411166e+03 1.124712872246389225e+03 9.729537101150602894e+02 1.144532849915382712e+03 1.292058867054307484e+03 1.401373862808712602e+03 1.567915298027852259e+03 1.714424032916449960e+03 1.705154401812863625e+03 1.586902983298348090e+03 1.469810435904762244e+03 1.503638434789219218e+03 1.429829248633009001e+03 1.360355754444718059e+03 1.488736542377040223e+03 1.649980559873708216e+03 1.804678653585065149e+03 1.803683028744269450e+03
1.271129536746733038e+03 1.351591816052252852e+03 1.434389801599314751e+03 1.602329740988879621e+03 1.774209832355473054e+03 1.801329467654260270e+03 1.691970456309474457e+03 1.541231901339250044e+03 1.374474004523269969e+03 1.193933631760166463e+03 1.314715831259146171e+03 1.292011213293827950e+03 1.455194962178100013e+03 1.646483816612250621e+03 1.799485585806398149e+03 1.936786816269397377e+03 2.050537935352042041e+03 2.082026060908996897e+03 2.006348783308810425e+03 1.834523448951621276e+03 1.672484026534757731e+03 1.535203931977246157e+03 1.418839714174684786e+03 1.555707743968125442e+03 1.697563856289721116e+03 1.834768297927072126e+03 1.778655436242028600e+03 1.612768631732546055e+03 1.469588083150840703e+03 1.363386800157204107e+03 1.277634300187958843e+03 1.157568906043731431e+03 1.017557532530426101e+03 8.349240292981717175e+02 1.017867813504062497e+03 1.195864380687044559e+03 1.356247910615142246e+03 1.422524411016304384e+03 1.319042846115472457e+03 1.169886585434738208e+03 1.011566295850432198e+03 8.439447102952605064e+02 1.012335215152935916e+03 1.191473461542825817e+03 1.342703685058752171e+03 1.478954787003089905e+03 1.605795958807164425e+03 1.687816392274376085e+03 1.606057757810436897e+03 1.419560682618515330e+03 1.234559976724595344e+03 1.072475770285003364e+03 1.092969192437258926e+03 1.106628450050385027e+03 1.018438983715550080e+03 8.964833722535388461e+02 7.281980476477526736e+02 8.952771843118680408e+02 9.986327916523175645e+02 1.075675192228078004e+03 1.147191054506431783e+03 1.220203165095376335e+03 1.298864569038480113e+03 1.392020570269630070e+03 1.568280539108777020e+03 1.770239022255743521e+03 1.861760256998803698e+03 1.752166570804924277e+03 1.601309682609264655e+03 1.463139835623170029e+03 1.350770774220653948e+03 1.487538162125361396e+03 1.638821068647060429e+03 1.777470661544070936e+03 1.898150014761253033e+03 1.886882973409691203e+03 1.779592094808550200e+03 1.655031938806305106e+03 1.521419553493795775e+03 1.383127964343177382e+03 1.242612876421793544e+03 1.090202531860744102e+03 9.149512953140249465e+02 7.504799789264352512e+02 7.931875978050608182e+02 6.771635710129395420e+02 7.401938679862541903e+02 8.187912718875189739e+02 9.100988768717091943e+02 1.020925883516451904e+03 1.183221751209657441e+03 1.372783376889511374e+03 1.584722949803642905e+03 1.680743215539612720e+03 1.544024512507984355e+03 1.383873977517498588e+03 1.244552178702526362e+03 1.132244143348969374e+03 1.120779987303863891e+03 1.025610268041171139e+03 1.059512572474428680e+03 1.028416080934896854e+03 1.024453603775246847e+03 9.312315082541491620e+02 1.046670750131208933e+03 1.191292324406671923e+03 1.389756879086033678e+03 1.563655219438031963e+03 1.633287286197823278e+03 1.582079081088062139e+03 1.464021282380060484e+03 1.336597059782843644e+03 1.348884953891423947e+03 1.273524748052902396e+03 1.407586592157821087e+03 1.574826124073138317e+03 1.733612289736703133e+03 1.819941925411494822e+03 1.746623948119995703e+03
1.204882546625908844e+03 1.227029656345490594e+03 1.391111487168283475e+03 1.573703452039495915e+03 1.729472441022715657e+03 1.723103821550485918e+03 1.593489486042453564e+03 1.452142577374490429e+03 1.289870950257581399e+03 1.144292821259757147e+03 1.192523280795753408e+03 1.385725655568203592e+03 1.558462302788447460e+03 1.705793909340995242e+03 1.808319039832520957e+03 1.857324843370173539e+03 1.944465126333922854e+03 1.945030809004065077e+03 1.914749759506948521e+03 1.747627838080940364e+03 1.578051931432000629e+03 1.459434444088703231e+03 1.346944456899908346e+03 1.472489466397871183e+03 1.645913135749472076e+03 1.778320239388352320e+03 1.708675235873988186e+03 1.514895368893225850e+03 1.337495459097844332e+03 1.198677161975839908e+03 1.168949573499790176e+03 1.056820571759904396e+03 9.415186491798203861e+02 7.978301661752011569e+02 9.377193431337274205e+02 1.113401359495958332e+03 1.297332411995231269e+03 1.367592311284837024e+03 1.239070652375687587e+03 1.074196064993975142e+03 9.263420158210095678e+02 8.085509248403974425e+02 9.791881906494348868e+02 1.107590745822073586e+03 1.240100104223169183e+03 1.378508673473245153e+03 1.516347708299207852e+03 1.629634549269402441e+03 1.572600125672358217e+03 1.402885643297314800e+03 1.227320463543162532e+03 1.066905318931475904e+03 9.267635100915723569e+02 9.462989783533907939e+02 9.194834972700280105e+02 7.994246925309350900e+02 6.992741665873885495e+02 8.138745096594082042e+02 8.967928940663955473e+02 9.638204994788893600e+02 1.032145807618926256e+03 1.107373042435946445e+03 1.185278080287391276e+03 1.343716541870739320e+03 1.529395154129782668e+03 1.721208489758835185e+03 1.793250347833800333e+03 1.673920429056273179e+03 1.523384781397954612e+03 1.385296056900330768e+03 1.270037572244397552e+03 1.400228827030136927e+03 1.530940921830488833e+03 1.680788400811761676e+03 1.824670239192080089e+03 1.820004684091728450e+03 1.680814490213139607e+03 1.548245507141227108e+03 1.435526446335757555e+03 1.351755903365980657e+03 1.250827513389871683e+03 1.131723359124652006e+03 9.952880148274717840e+02 8.537816876808125244e+02 6.855467505700514721e+02 6.545311467449106431e+02 8.207432355550332659e+02 9.588272899073946292e+02 1.069197792748134361e+03 1.180323640989254045e+03 1.310106397993890369e+03 1.460348396229887840e+03 1.611514900045056265e+03 1.697421071069075197e+03 1.619886922606908911e+03 1.487329489018321055e+03 1.340015300650889230e+03 1.168816047374236177e+03 1.004185164763738271e+03 9.964543093601258761e+02 9.085071813819040472e+02 9.044334584820237524e+02 8.745123593180068156e+02 1.029773245687390499e+03 1.169939420255998584e+03 1.324966235766108184e+03 1.457438772521825058e+03 1.541657007170488896e+03 1.515088978831530994e+03 1.421373882649580310e+03 1.328450732103743803e+03 1.235933283471610821e+03 1.182562854912508556e+03 1.317879430884339627e+03 1.489450606388125379e+03 1.662879664406432994e+03 1.777040439210181603e+03 1.790991374986579785e+03 1.681193375043406377e+03
1.065092625297763561e+03 1.217241261819460533e+03 1.396136060804040426e+03 1.584860659440779500e+03 1.695175565433731663e+03 1.632238951719438546e+03 1.487551475690314874e+03 1.353781703940641819e+03 1.257663866703152280e+03 1.106085068452577843e+03 1.273678028649274438e+03 1.426834395598260926e+03 1.593398047628675386e+03 1.689882916379051267e+03 1.679206194448963515e+03 1.698546235912804150e+03 1.802563997335594649e+03 1.789404572483951142e+03 1.829395910466458872e+03 1.733133731478936397e+03 1.561855972019821593e+03 1.387415567667610503e+03 1.284862003832268329e+03 1.467714083178359033e+03 1.629630541925890611e+03 1.735406891369809046e+03 1.673506089294955927e+03 1.494760850914679850e+03 1.319337470418070325e+03 1.168283623992348794e+03 1.026773650145923284e+03 9.276214992212921970e+02 9.012187864853492556e+02 7.664343448911415635e+02 9.323443082810273381e+02 1.106868199196353544e+03 1.246570753919604385e+03 1.318647468703191407e+03 1.250325272179835792e+03 1.088850975497032550e+03 9.220677578048763507e+02 7.760143551080582256e+02 8.755468974395780606e+02 9.939659651498321864e+02 1.128595330670457315e+03 1.279487688110338695e+03 1.428080438584642707e+03 1.567528039864168250e+03 1.521886154588230056e+03 1.388222067482714920e+03 1.249059015307364916e+03 1.107378179847072943e+03 9.483986517464927601e+02 7.939272416768075118e+02 8.031457223489742319e+02 6.660040376177041708e+02 6.950199437305356014e+02 7.452731014997373222e+02 8.038272901076013568e+02 8.663210886501583445e+02 9.394477392980637660e+02 1.028623150024039887e+03 1.157607162553386843e+03 1.317348283802288961e+03 1.506684126124868271e+03 1.697514788702716714e+03 1.740495228327798714e+03 1.593490947762631549e+03 1.444372661873053630e+03 1.313526025292791019e+03 1.199943771275055724e+03 1.314525573030537998e+03 1.428723401490705328e+03 1.595024681292643436e+03 1.758335340503701673e+03 1.749615772495922101e+03 1.586721983762746731e+03 1.422346536763584936e+03 1.297611782137341152e+03 1.198997087855124164e+03 1.120168479273213961e+03 1.033860901895866846e+03 9.610015827283149292e+02 8.686222369423194323e+02 7.583675210659166623e+02 6.328290539947925026e+02 8.037731488094243559e+02 9.749496529948177113e+02 1.109619960861707114e+03 1.224241698165829803e+03 1.339161637001991039e+03 1.454647031309832983e+03 1.566337816603729152e+03 1.653093682089088361e+03 1.629272095580357472e+03 1.497684238475261509e+03 1.345912166957972431e+03 1.193370499587851100e+03 1.037023280230961745e+03 8.732413418052642555e+02 8.806850498081788601e+02 8.098797972774427762e+02 9.714525281014057327e+02 1.116370654564149618e+03 1.266300300467651141e+03 1.400032720310557352e+03 1.474396476695333149e+03 1.444974210443615675e+03 1.353385252524291218e+03 1.264064485608211498e+03 1.173201349547037353e+03 1.102467473107584055e+03 1.228056196737643859e+03 1.398635513602926949e+03 1.579806696922890296e+03 1.712524382242379033e+03 1.753098405557882415e+03 1.698981225888268455e+03 1.599087227228098982e+03
1.060516700899401485e+03 1.216929469663648433e+03 1.396793149843794481e+03 1.575654293243542270e+03 1.635830910434130146e+03 1.515235690170934504e+03 1.372765140954438721e+03 1.235971351022767521e+03 1.139347470058090948e+03 1.070020519800041484e+03 1.255892459806644183e+03 1.431352495113314717e+03 1.562391827365833024e+03 1.587790021357164278e+03 1.508382673592520177e+03 1.545782688968303773e+03 1.671234157420833526e+03 1.628078019574805694e+03 1.709591020875845288e+03 1.668356369805911982e+03 1.548216829252270372e+03 1.397249851464630410e+03 1.226733704318421815e+03 1.388189094683935991e+03 1.541539220317371928e+03 1.676248674457624929e+03 1.639476163114732117e+03 1.468794393536237976e+03 1.299535209629657402e+03 1.192170166946300469e+03 1.074903407311081310e+03 9.551970782574197756e+02 8.045056832201529460e+02 7.337604055800270544e+02 9.048882821921188224e+02 1.015898807585806935e+03 1.121874495575125820e+03 1.229291048002164189e+03 1.212937425594145452e+03 1.085888506773339714e+03 9.136108324488880044e+02 7.483083825009480279e+02 9.113053279484684026e+02 1.031471190483304554e+03 1.129891611887778026e+03 1.208304409694955666e+03 1.379687796743266290e+03 1.513805192034384163e+03 1.442072692308248179e+03 1.269118243564431168e+03 1.131533527567987903e+03 1.020737413430567017e+03 9.311627495685492022e+02 8.154572398253222900e+02 6.715112462069291723e+02 6.414125775559084559e+02 7.782636143448042958e+02 8.814659561401671226e+02 9.759368624302411490e+02 9.935007026790561895e+02 1.074772647182784340e+03 1.166778250323314296e+03 1.292459395404390307e+03 1.436883377342756148e+03 1.607759849499113216e+03 1.728338165647996902e+03 1.713635218679268974e+03 1.554018228869237191e+03 1.369633812500004979e+03 1.231163572225106236e+03 1.138431615256083433e+03 1.239392728924675566e+03 1.400646768393549564e+03 1.574652767254103310e+03 1.725943152731024156e+03 1.703176632820926670e+03 1.512229424445200266e+03 1.329334614119347407e+03 1.185501803095552532e+03 1.072093461370365276e+03 9.756994284054965192e+02 8.888403507336646499e+02 8.091346717093459802e+02 7.344147533502670058e+02 6.658583694938510007e+02 6.105052722947049233e+02 7.798843871254736086e+02 8.988707823478135879e+02 1.004391676833493761e+03 1.112716541428959090e+03 1.220601368904440733e+03 1.314742942255762046e+03 1.428404403868678855e+03 1.570598979516860709e+03 1.585409917605898045e+03 1.419428564598662661e+03 1.245785115740688752e+03 1.093307187161776483e+03 9.617635370072192700e+02 8.491846664440831773e+02 7.583241833720378509e+02 8.477226138687481125e+02 9.624216352911088279e+02 1.076973379627938129e+03 1.244413558123390430e+03 1.389947402409191682e+03 1.398979216591607383e+03 1.294906416424615372e+03 1.196060904542582875e+03 1.101988363031192421e+03 1.029524072035178733e+03 1.171179417569230282e+03 1.313069220539777234e+03 1.474584289708522874e+03 1.641696639520142071e+03 1.716762627889107307e+03 1.660152059116892133e+03 1.541268391735037085e+03 1.440827961379211956e+03
1.070846105630461352e+03 1.227602944096400051e+03 1.405228786576643643e+03 1.569804894986124282e+03 1.590093466005453365e+03 1.429416992924685246e+03 1.259484767619685499e+03 1.121313617246942840e+03 1.014281147509166431e+03 1.153610337443973776e+03 1.278352417233730648e+03 1.362177106093904285e+03 1.460447959428938020e+03 1.465304792128301642e+03 1.346706890818860757e+03 1.459828563559962276e+03 1.551381891089271903e+03 1.478260768765460170e+03 1.576270472362524288e+03 1.548260048913972014e+03 1.430295196157564305e+03 1.312977606357798550e+03 1.169788855906861045e+03 1.296486800828461810e+03 1.463416819712287406e+03 1.628303723333883454e+03 1.610945583675044873e+03 1.425808986295768136e+03 1.239677687452737246e+03 1.087543727159246600e+03 9.690863102677203642e+02 8.681129162737539673e+02 7.792732874286654123e+02 7.072823452461301486e+02 8.198547766071865226e+02 8.682796058729122706e+02 9.994031136945475282e+02 1.121195416593402797e+03 1.119115941095176368e+03 1.004007708521416930e+03 8.830274196341317747e+02 7.162985250545996223e+02 8.624959562783733418e+02 9.046139258018902183e+02 1.016200430022798173e+03 1.179081803830379386e+03 1.360559324755113039e+03 1.479588359085093998e+03 1.373904276302168910e+03 1.167154684908508898e+03 9.867161800570315791e+02 8.827365934891812458e+02 7.883483408225206404e+02 7.115612218179768433e+02 6.095690785943066885e+02 7.610651699227553308e+02 8.904294489817427802e+02 1.012368822980737264e+03 1.113249520101995358e+03 1.186584553042083598e+03 1.219437730025396831e+03 1.324353373492287346e+03 1.438715733777317610e+03 1.579495900041388722e+03 1.690270528858787884e+03 1.743749268156560447e+03 1.685846468450897191e+03 1.558632261582314413e+03 1.391157473633571271e+03 1.227961648210720796e+03 1.087639964075439593e+03 1.254143677681634472e+03 1.411714595016990870e+03 1.570521015659179966e+03 1.709346530867914680e+03 1.733674893698490450e+03 1.617228248749304839e+03 1.454565236154072409e+03 1.327706353494022096e+03 1.224608372339757125e+03 1.134631750340303597e+03 1.051135430469004859e+03 9.679071574592519482e+02 8.766356916355455269e+02 7.529839669875836989e+02 5.942980334913387424e+02 6.859931097914956126e+02 7.738220408062658180e+02 8.648950640265561560e+02 9.972307749029783963e+02 1.071590746946593754e+03 1.145595122591861809e+03 1.314907198303078303e+03 1.504617438844559956e+03 1.591586089615444280e+03 1.506388450861143610e+03 1.372750201486014021e+03 1.239100498203256620e+03 1.114751902514941321e+03 9.949081566550236175e+02 8.639184542141765633e+02 7.091581207351886178e+02 8.473435821583831284e+02 1.034081261699262541e+03 1.221130564588676634e+03 1.348272682865606839e+03 1.310025166244890443e+03 1.158664672731571272e+03 1.035015209890964115e+03 9.561943030081272354e+02 1.116039583196645253e+03 1.266120048211858830e+03 1.410380231439248519e+03 1.551136914899633211e+03 1.680717060895628720e+03 1.664151410230986812e+03 1.520916601162101188e+03 1.388805224296158030e+03 1.272927272871389960e+03
1.084380769472601514e+03 1.251772336585800304e+03 1.426872969600912938e+03 1.570312517851360781e+03 1.583187108375566368e+03 1.426543434735240680e+03 1.258312605324811329e+03 1.109229477656068411e+03 9.798365816080460036e+02 1.091468955345309041e+03 1.182473153963214600e+03 1.214172480176203408e+03 1.328717573336090709e+03 1.342730713393192900e+03 1.225714692828600619e+03 1.378341833263143599e+03 1.439390244624276875e+03 1.340663023538422067e+03 1.438880913425930203e+03 1.405784415721639789e+03 1.292046211882025545e+03 1.190518951457787807e+03 1.122297487767097891e+03 1.274262657536854476e+03 1.451589366518655197e+03 1.627662477141709587e+03 1.648132144634900214e+03 1.502858584685396636e+03 1.348533120691250133e+03 1.209165975363806865e+03 1.112360980548131465e+03 1.015611777723108844e+03 9.235643925881278165e+02 8.279935887189790265e+02 6.673749841815666741e+02 7.545210088509289790e+02 8.787239547226853347e+02 1.009310613940294957e+03 9.996044762111008595e+02 8.859079831961665832e+02 7.777309919667758322e+02 6.849248641548161913e+02 7.707038180920537798e+02 9.165540453728889361e+02 1.093150710143374454e+03 1.260940661895334642e+03 1.414879482499903588e+03 1.461168557589578995e+03 1.337895397412681405e+03 1.143225455273769285e+03 9.470778817812185935e+02 7.783552671089272508e+02 6.609644225126263564e+02 5.712521257583964598e+02 7.221572382738230544e+02 8.674718803560501783e+02 1.011942398260266714e+03 1.137254822504888352e+03 1.244695271806692972e+03 1.334696672319120125e+03 1.400342542798641489e+03 1.474356388763837231e+03 1.591489222711882121e+03 1.676583642941166772e+03 1.713082149728355034e+03 1.668748173385951532e+03 1.566265105448482018e+03 1.471705505043182711e+03 1.377333155855837504e+03 1.206192981811510663e+03 1.036913409736587482e+03 1.159770747708115778e+03 1.310433347244196057e+03 1.482665577113632253e+03 1.661576616705714741e+03 1.755031969604957112e+03 1.698676655943937931e+03 1.580001299560999087e+03 1.462726009194298967e+03 1.370207051015811430e+03 1.288437158175680224e+03 1.208425840198621245e+03 1.115517914040617597e+03 9.946605577491516215e+02 8.505660845419330371e+02 7.081251428769528502e+02 5.617395498902814097e+02 6.697868322064582571e+02 8.185198606820431451e+02 9.120646816337585960e+02 9.294253992280392822e+02 1.080811773157425705e+03 1.255913320495871403e+03 1.444972938525071868e+03 1.565792708181245189e+03 1.539240695872536890e+03 1.420932031771996208e+03 1.294367852733293603e+03 1.167572111193566116e+03 1.026481190679040992e+03 8.612799613335100730e+02 6.754048756871461592e+02 8.407944471112402880e+02 1.017110112334483915e+03 1.158255050475219832e+03 1.285422550982485063e+03 1.231975375191279227e+03 1.049379842406520083e+03 8.825571437242971342e+02 1.042262442131529269e+03 1.205120486403929362e+03 1.360322284839213808e+03 1.500670758843732074e+03 1.624111195623184358e+03 1.700652348332309884e+03 1.608892270243188705e+03 1.410815301898182497e+03 1.230376112412595376e+03 1.129558643148837518e+03
1.104227247614734779e+03 1.245784867966047614e+03 1.361960917584317485e+03 1.535308657113162553e+03 1.596472258615602186e+03 1.502468836568825964e+03 1.374781501753053590e+03 1.242554543071580383e+03 1.088625861293724029e+03 9.304577367022608314e+02 1.037157995670736454e+03 1.064159146443875215e+03 1.197386125310161333e+03 1.210451504189013122e+03 1.118923174585595007e+03 1.288307086967196028e+03 1.340107055685200294e+03 1.219245087181674762e+03 1.285793379914753586e+03 1.245770250539987046e+03 1.137133415518923357e+03 1.050099831922525937e+03 1.213000713779500984e+03 1.383899394152827426e+03 1.533720599009742273e+03 1.665246976594716898e+03 1.703096154631908803e+03 1.612107296325802508e+03 1.468519721900001969e+03 1.364772404960770245e+03 1.253848661746056905e+03 1.141201616572325520e+03 1.023690258422827242e+03 8.925200774056877435e+02 7.557870475439549409e+02 6.157486188868457475e+02 7.777472146533900741e+02 8.976585962947270900e+02 8.611139477287366617e+02 7.526524142672139988e+02 6.464705399683589349e+02 7.796653216952037155e+02 8.950492800083248994e+02 1.031431530427189045e+03 1.187056294417101299e+03 1.351859852098181364e+03 1.443571790195068161e+03 1.408825648029173180e+03 1.284595005276656366e+03 1.166951948359077278e+03 1.027185593224565764e+03 8.701304543451778954e+02 6.993379978602202982e+02 5.472694170431129805e+02 7.021414984262258940e+02 8.707147308580563276e+02 1.033840236319868154e+03 1.156160993505612169e+03 1.253402390835745337e+03 1.354591320748196949e+03 1.465193791930512134e+03 1.586107263378804873e+03 1.677173316998738301e+03 1.688048980256746745e+03 1.627680698357103893e+03 1.524869467525971004e+03 1.425332166894095735e+03 1.323354602713763597e+03 1.314344182425790905e+03 1.174963716745437750e+03 9.912145325840544956e+02 1.167567691395340717e+03 1.324533468187040853e+03 1.464360093929370578e+03 1.586798449606805889e+03 1.714494653401291771e+03 1.714493657404867008e+03 1.588610273161506029e+03 1.443008527437908924e+03 1.369393697521804597e+03 1.306378123613265188e+03 1.247311579698676269e+03 1.157731052482077303e+03 1.007437189579900405e+03 8.402807918789980022e+02 6.796429279915536199e+02 5.381503844041949378e+02 6.011283020671752411e+02 6.828606019701126115e+02 7.737453426984908447e+02 8.913340702114326177e+02 1.026816682411332749e+03 1.182583114041920908e+03 1.357521925323022742e+03 1.521588058678132029e+03 1.492888046517175326e+03 1.334782637255278814e+03 1.192350910805497506e+03 1.078457432198830929e+03 9.499609045969572207e+02 7.891159551157504666e+02 6.441183462026737061e+02 8.122567276710645956e+02 9.224532481411484923e+02 1.086407624795825996e+03 1.228661000407625579e+03 1.179986432987774378e+03 1.008220842164224678e+03 8.345508815677180792e+02 1.008880298588734036e+03 1.194235047994677871e+03 1.349635612657621550e+03 1.476829005497447952e+03 1.587941497149355428e+03 1.657129645820603173e+03 1.564962758940438334e+03 1.370323874896409052e+03 1.180430590625971263e+03 1.016349456602561531e+03
1.022277146514431934e+03 1.121963363632645269e+03 1.307580792623425623e+03 1.489691192551693121e+03 1.555736392521171865e+03 1.488349863047955978e+03 1.397520572753204306e+03 1.300887209220234581e+03 1.185205046338368902e+03 1.044563973934572459e+03 8.689548790329894246e+02 9.582488279527603936e+02 1.056589368313218529e+03 1.047198746580184434e+03 1.023788003672240734e+03 1.221521379899905696e+03 1.272482454455765037e+03 1.115453037517655275e+03 1.115019365257417121e+03 1.073233167838172676e+03 9.683625151446558448e+02 1.139187496365027300e+03 1.286405193846197562e+03 1.416125773488246523e+03 1.528518966218425930e+03 1.636725764325732825e+03 1.710446430976631291e+03 1.671071367277261970e+03 1.560309649220836263e+03 1.414419258815093599e+03 1.266089093112694627e+03 1.117782942473049616e+03 9.677410807759076761e+02 8.243144214132978504e+02 6.967113909733462833e+02 5.837981715587195595e+02 6.994053244949892587e+02 7.663478823192510845e+02 6.984834532123318240e+02 5.970428690355603294e+02 7.524777246010880845e+02 8.886030657805979445e+02 1.020269196018142566e+03 1.151526150342211167e+03 1.304068706901644418e+03 1.407147999272858215e+03 1.403354825721120733e+03 1.309843359474858971e+03 1.172333550474447975e+03 1.065369936946030975e+03 1.008526496706450757e+03 8.524545297248688485e+02 6.782793749177930067e+02 5.260310346446582344e+02 7.068847422147899806e+02 8.580182544489304064e+02 9.563692141096640853e+02 1.023931329171140874e+03 1.115249753413378585e+03 1.233721754068579457e+03 1.380139342677738796e+03 1.559675031767052360e+03 1.668283445619833174e+03 1.608775769687024649e+03 1.475694890643535473e+03 1.369170632078000608e+03 1.278777257994759566e+03 1.183448121435000758e+03 1.230239347878405169e+03 1.094819160596667416e+03 9.406881959004030023e+02 1.090776659014354209e+03 1.221085690467637505e+03 1.341168450790357838e+03 1.496438715878232415e+03 1.644960105636360367e+03 1.655771416449937988e+03 1.545726121943640464e+03 1.397557650792495224e+03 1.214468995248313604e+03 1.157281540520286853e+03 1.119837752558918964e+03 1.098756732639873007e+03 1.012011092923059550e+03 8.659163430397355796e+02 6.904256816473230174e+02 5.229562276869328343e+02 6.821165671548994851e+02 8.171852774142676026e+02 9.311367712270684933e+02 1.044343653118761722e+03 1.167452112380744893e+03 1.302284341846046118e+03 1.439753556454149248e+03 1.535746340025155177e+03 1.449235697761182564e+03 1.251172292948095446e+03 1.073692266758059304e+03 9.365712682496935031e+02 8.712337877677080087e+02 7.756364002324712601e+02 6.147988754726139859e+02 7.286561500771111923e+02 9.090951807015707118e+02 1.091650400028514696e+03 1.192429811985937022e+03 1.128417848026138927e+03 9.789764337268240979e+02 7.932924879788422459e+02 9.738070949090094928e+02 1.114657429918111575e+03 1.235059442112255738e+03 1.344028551499556443e+03 1.470089806042318969e+03 1.584527244806142789e+03 1.528352485081834402e+03 1.347812606899760794e+03 1.166546939429545773e+03 1.010613307357462418e+03
9.156619022931895415e+02 1.084952734294589163e+03 1.283161729464084601e+03 1.450013366636868341e+03 1.467395179394135994e+03 1.359424783112561272e+03 1.255358762489494211e+03 1.215952255863790015e+03 1.198966519738538409e+03 1.099053704975673327e+03 9.639789132618668646e+02 8.087910818760313987e+02 9.084852501491666317e+02 8.839357695717554861e+02 1.049832697858025767e+03 1.226794215779885008e+03 1.272250076451964333e+03 1.128508099713832507e+03 9.657269405627079095e+02 8.846914030963324649e+02 1.021874994141462821e+03 1.147569362417801813e+03 1.248713789309556660e+03 1.294575661444347134e+03 1.390735876313108975e+03 1.518620440950151306e+03 1.644782497954525070e+03 1.627512715641784780e+03 1.520220865141232025e+03 1.400090051291213285e+03 1.288371297057836955e+03 1.177156966470292900e+03 1.068386362752763262e+03 9.525815456578484373e+02 8.359603369770161407e+02 7.090414381918618574e+02 5.430872896342393688e+02 6.262431836710774178e+02 5.441165060259502297e+02 7.135029438383668321e+02 8.573380768911824816e+02 9.968593759619576531e+02 1.129802626429697966e+03 1.258152771834559417e+03 1.378296921127200676e+03 1.415975917082738079e+03 1.319007697084670326e+03 1.165474018651545293e+03 1.034618369668457944e+03 9.197752981742694374e+02 9.391058571147531211e+02 8.434600766724250889e+02 6.704357472617683698e+02 5.035617771313567346e+02 6.417957272694900439e+02 7.427592098758907468e+02 8.473722054766182055e+02 8.557921865066315377e+02 9.694019530913253675e+02 1.110864993554656849e+03 1.293437415915497013e+03 1.503789017966312258e+03 1.613529252490006229e+03 1.501915199136467891e+03 1.345099479087197551e+03 1.197614301598481234e+03 1.168716766083285620e+03 1.060681159335245638e+03 1.149268079073236549e+03 1.068407239391122403e+03 8.950424363495328635e+02 9.879276512151537872e+02 1.105620132529298644e+03 1.247118779418562553e+03 1.414682338979896940e+03 1.572249493416091127e+03 1.570224541204361685e+03 1.429530590039389836e+03 1.289572704810578443e+03 1.159931335010758630e+03 9.866023116206024497e+02 9.524264529288752783e+02 9.470258988617698606e+02 9.108860457141335019e+02 8.017770463460331030e+02 6.829476512498184775e+02 5.032612616649118422e+02 6.560604245837130293e+02 8.223795783317573296e+02 9.754129551153334887e+02 1.097811476457750132e+03 1.211993783040142034e+03 1.334397647785701793e+03 1.456499703947927173e+03 1.534143896145191775e+03 1.434450024205273621e+03 1.241056031371494555e+03 1.057097201943993468e+03 9.010124344060411659e+02 7.658652270486502402e+02 6.980982905801021161e+02 5.879076238517001229e+02 7.342583972522173781e+02 9.088496449354374818e+02 1.071468876760305193e+03 1.113348344087606847e+03 1.021643678188230751e+03 8.993923632190134185e+02 7.505380719369348981e+02 8.858244661310104675e+02 1.021857398625782480e+03 1.083544901224875275e+03 1.214774262070041004e+03 1.372795891888480355e+03 1.521753865873395625e+03 1.501716052067611145e+03 1.332092711172898134e+03 1.155504305224093741e+03 1.003399035391289658e+03
1.007446835826757820e+03 1.169914892031891668e+03 1.340012898556072514e+03 1.426813605386408426e+03 1.368333148073150596e+03 1.232458412194044058e+03 1.104879457203639504e+03 1.022801228321764029e+03 1.096424317620401098e+03 1.052407835037651921e+03 9.495993776361742675e+02 8.434476884980155091e+02 7.561239123978099315e+02 8.853297114250378854e+02 1.059238368212538944e+03 1.245243313399425460e+03 1.289981362782440556e+03 1.141654880722826420e+03 9.775033014702618175e+02 8.376872495199298783e+02 9.266860660035663386e+02 1.027740209850958081e+03 1.114804422972385964e+03 1.121500189807205516e+03 1.256498439825885953e+03 1.421629648340483527e+03 1.573670297504123710e+03 1.540699206573137417e+03 1.389195118819124673e+03 1.256731602463757326e+03 1.152348250030271174e+03 1.074443645771281354e+03 1.054590211746573914e+03 9.743502306940798690e+02 8.763689132818468579e+02 7.605059315031155620e+02 6.352501258891962834e+02 4.930474929895954119e+02 6.246030508107588730e+02 7.495089278220536926e+02 8.657114676005697902e+02 9.862912377986283445e+02 1.115024298931712337e+03 1.241499368620822224e+03 1.388022161781846989e+03 1.388125457696819467e+03 1.213850265895425082e+03 1.037355340497692168e+03 8.941355691655309101e+02 7.830178962180551707e+02 8.034290383091125705e+02 7.871305109339945147e+02 6.454157168899066619e+02 4.813358219270722316e+02 5.425357336739552920e+02 6.185594319342454810e+02 7.055802803739248930e+02 8.210538747636943526e+02 9.519981065364563619e+02 1.105057206121638274e+03 1.288357905391110535e+03 1.485112992399382392e+03 1.560444622555995238e+03 1.473900097586554011e+03 1.340600193945821729e+03 1.174938408054751108e+03 1.010231587546447713e+03 9.502474404452069621e+02 1.066366433952109219e+03 1.020514164836652185e+03 8.536928613549703186e+02 1.018845169625378389e+03 1.159464014889919554e+03 1.284246344680040693e+03 1.408367406354913555e+03 1.512357580582484388e+03 1.492463487942162146e+03 1.330769963708567957e+03 1.166838391183491467e+03 1.041789432842915630e+03 9.460326401611799838e+02 7.973904992549897770e+02 7.868422673287333282e+02 7.618264910014645466e+02 6.628391501100131791e+02 6.338078208393164914e+02 4.832021426980440992e+02 6.512101772406704185e+02 8.133992785147436280e+02 8.942819717389770631e+02 9.876841123709408521e+02 1.100349101163636078e+03 1.230108050291778682e+03 1.371522842798299507e+03 1.491133721528670549e+03 1.421052740748026963e+03 1.239163749232933242e+03 1.049245162465565727e+03 8.883618096323478994e+02 7.513720359571187828e+02 6.341506435165784978e+02 5.621791571225862754e+02 7.314796260746259122e+02 9.142967330636539600e+02 1.031285848447303351e+03 1.006515955963212491e+03 9.018371809263431942e+02 7.985561498121589921e+02 7.139209575155126686e+02 7.899845040734369377e+02 8.805991818060250580e+02 9.856914743691953618e+02 1.120517992978117263e+03 1.296881484328825309e+03 1.484832052150022264e+03 1.494060272633276782e+03 1.321469959663143982e+03 1.140596363650260855e+03 9.872245783812073796e+02
1.098030939976829814e+03 1.257652526505443120e+03 1.369550393564457181e+03 1.359911657777319533e+03 1.238845142547868591e+03 1.108819615306200831e+03 9.752051439649443410e+02 8.707800664257337075e+02 9.697962025419136580e+02 9.283913343585203393e+02 8.161978150253838749e+02 7.071049260269315937e+02 8.404135120348278178e+02 9.756490420192106967e+02 1.139409292847175266e+03 1.303143375946206561e+03 1.338940340840388217e+03 1.224619246865449668e+03 1.082716203725604373e+03 9.332476062242217267e+02 7.777027770165946094e+02 9.239912907522608521e+02 9.455589997411558443e+02 1.078880865577734312e+03 1.230937183259080484e+03 1.397233579454414667e+03 1.531756553075607144e+03 1.464895936456713571e+03 1.281116494575290290e+03 1.112184073719492517e+03 9.904174158452987058e+02 9.031539126698950213e+02 9.314567898042309935e+02 8.493904632155609988e+02 7.637562184977051629e+02 6.718425543553621537e+02 5.917931242578478077e+02 4.709481189104968166e+02 5.470945390536553532e+02 6.350535495738721465e+02 7.360670366568142526e+02 8.557836233449723977e+02 1.002009743732104084e+03 1.190225223448560882e+03 1.378436586606904257e+03 1.415901148086496505e+03 1.277909795339013954e+03 1.127017878456752214e+03 9.698117327592569836e+02 8.002149574826605658e+02 6.553273311924441487e+02 6.829990300495380779e+02 6.198044581437003444e+02 4.639378802754931712e+02 5.915449351948861931e+02 7.202905518074045403e+02 8.247878609219357031e+02 9.383138481859191415e+02 1.070083402310330712e+03 1.219554989182019426e+03 1.379099206559867298e+03 1.503503083883615091e+03 1.492206128363835433e+03 1.360742964272031713e+03 1.236620430028730652e+03 1.135470140664696146e+03 1.006376340738848398e+03 8.541601191615726520e+02 9.900313304338368425e+02 9.696447458705806639e+02 8.104802520948810525e+02 9.518548604803240778e+02 1.065075063392171842e+03 1.170860094972472325e+03 1.290982200735158131e+03 1.423935533219188073e+03 1.429226735686136635e+03 1.251925747011383464e+03 1.073472465404439163e+03 9.318449705449677367e+02 8.217583428866923896e+02 7.277668991106077101e+02 6.510316425973657033e+02 5.838490734888090401e+02 5.199859991993956783e+02 5.582840528558360802e+02 4.641873728775271388e+02 6.424078497429968593e+02 7.452504932447538977e+02 7.459683116359833548e+02 8.512415544100858824e+02 9.765793357434657764e+02 1.125990809317142521e+03 1.303220577221352414e+03 1.449981783065569516e+03 1.409554912226335546e+03 1.275966130812410029e+03 1.128380002814817090e+03 9.899363079247225414e+02 8.530860781302648093e+02 6.881759574847976637e+02 5.393945464492196606e+02 7.082027739003367515e+02 8.775932040131588110e+02 9.330354301829481756e+02 8.540540593807554615e+02 7.639986647618122788e+02 6.686125417436833231e+02 8.142462709218244754e+02 9.253434660077679155e+02 1.020481678668773498e+03 1.121914461506469706e+03 1.239961609360196690e+03 1.380875429961742839e+03 1.532282716048288876e+03 1.545922434139245524e+03 1.418958963772422521e+03 1.248320186537473319e+03 1.110852483750215242e+03
1.087815239033176340e+03 1.274113429930609982e+03 1.343923524623012099e+03 1.268497343977643595e+03 1.124177473471681424e+03 9.835777273160967979e+02 8.631471085959656193e+02 7.511264293555378799e+02 8.357695762658281637e+02 7.833564406966979732e+02 6.593233159320704999e+02 7.834763164844224548e+02 9.211955997177406061e+02 1.078791190788158247e+03 1.228438899087615255e+03 1.363735102440816945e+03 1.358863652629573380e+03 1.215679114109850389e+03 1.077235967358107246e+03 9.041901287136677183e+02 7.319346108773055448e+02 8.022826723365462840e+02 9.229657837721994156e+02 1.060263930647865209e+03 1.215048923732079402e+03 1.380809013592968540e+03 1.505350893241868789e+03 1.408856769269252482e+03 1.197267069837126428e+03 1.009352193097583495e+03 8.652430407927120086e+02 7.547119797612215280e+02 7.803022758469932114e+02 7.007805414433894384e+02 6.141685735913678172e+02 5.395892701038245605e+02 4.456743479925899578e+02 5.899042484611917416e+02 6.923846983222333620e+02 7.677841776879806730e+02 8.565740013362828904e+02 9.661609375360779950e+02 1.110451818716192520e+03 1.266512044640074691e+03 1.421697891589207529e+03 1.448409526412038304e+03 1.342641135136380626e+03 1.202059165051905666e+03 1.046360542746146848e+03 8.736372658790862715e+02 6.910638516975122911e+02 5.301755191212378122e+02 5.449811949155313187e+02 4.449320574988624344e+02 5.452088357265735112e+02 6.577763368678480447e+02 7.769140523938474416e+02 9.080953227829921843e+02 1.057734747329798665e+03 1.231141766154654078e+03 1.415860460235163828e+03 1.499728838215396763e+03 1.414326257433240244e+03 1.251552145657888786e+03 1.102246353225349367e+03 9.904149952973943982e+02 9.004701459777693344e+02 7.735346443517076978e+02 9.205492483803240020e+02 9.205632276396296447e+02 7.699228596739762907e+02 8.452322637565042669e+02 9.280142804496034614e+02 1.030969872936167349e+03 1.174579664898127930e+03 1.344304304271201090e+03 1.435666889762069786e+03 1.347229718129167395e+03 1.189537178065380431e+03 1.056535815319243511e+03 9.663098032306386358e+02 8.723033724774528537e+02 8.212477362148061957e+02 7.211407935122224444e+02 5.955589959427863960e+02 4.368722038456446057e+02 5.226093634481821937e+02 6.037695773302739326e+02 6.105010200851639866e+02 7.782989321329957875e+02 9.525542735110715284e+02 1.095490914258378325e+03 1.229363796823343137e+03 1.359777751078310075e+03 1.432184412525196421e+03 1.342135901587404305e+03 1.185655653956387596e+03 1.071987638871452646e+03 9.617505423202965176e+02 8.479810808783865923e+02 6.785937950967011147e+02 5.133639911826489879e+02 6.785709793818907656e+02 8.250063698847395699e+02 8.196792655683630073e+02 7.113095041711241038e+02 6.098491726138923923e+02 7.709348255462297175e+02 9.046518159718034440e+02 1.025693898806684956e+03 1.132673707556165482e+03 1.238241225653310039e+03 1.352908986579823704e+03 1.476985069343870919e+03 1.585858203202712957e+03 1.589926344877107567e+03 1.475707322388899001e+03 1.340864730275609190e+03 1.212843125907390686e+03
1.185885974777805131e+03 1.306109918959194147e+03 1.286996967743218192e+03 1.144729879903278061e+03 1.003415046505916962e+03 8.752679235831078586e+02 7.601882897962894958e+02 6.540395149408235511e+02 7.017690588598097747e+02 6.102581113788228322e+02 7.475461455441434282e+02 8.755499275609191727e+02 1.012342575649936293e+03 1.172507594154662456e+03 1.333644984575538047e+03 1.415783782516145266e+03 1.344593055434453845e+03 1.167453806555526398e+03 9.862571358938805588e+02 8.695171039151654213e+02 6.978469528570279863e+02 8.044092351315919132e+02 9.277445746554435573e+02 1.064902239510659456e+03 1.218024789656376242e+03 1.379578782373022932e+03 1.498524726793474656e+03 1.407377722318715087e+03 1.212947748618280002e+03 1.031201193751306391e+03 8.777882323112326048e+02 7.430378278916689396e+02 6.193742858959437854e+02 5.395858325534907181e+02 4.677449765930683725e+02 4.095544325027669856e+02 5.625126307210762207e+02 7.023394851919474604e+02 8.278793661500337748e+02 9.256033996677734876e+02 9.995427914412031214e+02 1.101262921352105650e+03 1.224024773762417681e+03 1.370082450842903881e+03 1.454394950736965939e+03 1.403573635295751274e+03 1.283663256552447592e+03 1.152747897676257026e+03 1.017175197850879385e+03 8.501832146604398304e+02 6.874325625996914368e+02 5.403075188768251564e+02 4.158348533310785911e+02 5.598401037091927037e+02 6.777965593628848637e+02 7.844042522620751470e+02 8.894867664296325529e+02 1.014876007801736137e+03 1.156702096896093963e+03 1.310850724106199550e+03 1.448996815569571481e+03 1.469194706502796180e+03 1.318597024229158251e+03 1.146128381757783018e+03 9.935776267756734796e+02 8.684457789403071502e+02 7.651293001762336417e+02 6.990596655516869760e+02 8.530063562622985955e+02 8.715443032851516136e+02 7.942875703519459876e+02 7.145720776198738804e+02 7.998565332855603174e+02 9.107584897944709610e+02 1.061165485347082722e+03 1.265795249004635025e+03 1.431378731596424132e+03 1.425190633251759209e+03 1.300484152785108563e+03 1.204824647359403116e+03 1.104089487276108684e+03 1.012528923447162242e+03 9.235870200817865907e+02 8.140032692283973574e+02 6.856086462235501813e+02 5.525218173501660885e+02 4.023160457520206705e+02 4.789669897618006189e+02 6.325651519264408762e+02 7.990172758541878011e+02 9.669022492155111195e+02 1.104611222734514058e+03 1.226609817528848225e+03 1.340990389377227984e+03 1.385124088722400984e+03 1.246886320467004907e+03 1.073272618008661766e+03 9.230387271549658408e+02 8.011033703453176713e+02 7.681400056368614742e+02 6.498044059074073857e+02 4.868665862482480406e+02 6.528585081453670682e+02 7.587425337029638968e+02 7.178528072409386596e+02 5.504555522290019098e+02 6.733415913412541158e+02 7.828676166239162058e+02 8.812228311595081323e+02 9.793916479121115799e+02 1.081237818465977853e+03 1.192714549660968487e+03 1.318903490089254092e+03 1.457009548895887519e+03 1.573815023923357103e+03 1.555124945680512155e+03 1.407691559129410507e+03 1.284177607347707408e+03 1.155424481893621078e+03
1.258815732829281615e+03 1.323171215638159993e+03 1.226906623875290506e+03 1.043829501443822892e+03 8.795481321625183000e+02 7.496669084087448027e+02 6.743853956330309529e+02 5.735320185554978707e+02 5.596758718348422690e+02 7.164662330783021389e+02 8.566529316517012376e+02 9.943429019258464905e+02 1.128352693125028281e+03 1.266965733091151151e+03 1.404488763314725247e+03 1.430348147733259793e+03 1.317590391938859057e+03 1.136278410194287517e+03 9.502613067465795211e+02 7.802412715330565334e+02 6.651428113406690272e+02 8.236542846141219343e+02 9.586986854869929857e+02 1.091995978583779333e+03 1.236243721703792062e+03 1.384385200379465232e+03 1.490951558955095379e+03 1.418679647849211960e+03 1.229362279869192434e+03 1.054043331490098808e+03 9.081543011411314410e+02 7.861079711770753420e+02 7.622953198932320902e+02 6.735672893010624875e+02 5.478545032713606133e+02 3.913989261906615980e+02 5.566917166961552539e+02 7.231273958899297440e+02 8.571784449783499440e+02 9.702239580054215367e+02 1.083969595399199079e+03 1.206321808304699971e+03 1.324584932920077108e+03 1.427793958598449080e+03 1.433203599371426208e+03 1.314716194174138309e+03 1.146550939137427122e+03 1.007305763983422821e+03 8.865908111004393959e+02 7.877798716922528683e+02 6.736968812172962089e+02 5.479596747457558195e+02 3.936466679194224980e+02 5.501073208077522168e+02 6.894409867891639578e+02 7.858726495099268732e+02 8.493053569503758808e+02 9.786416871992347524e+02 1.128150565942328740e+03 1.294563042275278121e+03 1.444366355357115935e+03 1.451063865438801940e+03 1.321671538625238327e+03 1.168104065330156573e+03 1.025960040304213408e+03 9.001381562523256434e+02 7.814716755321032906e+02 6.363460619242883922e+02 7.727860795011232540e+02 7.590666871065036503e+02 6.605725204862221744e+02 7.802373276158961062e+02 8.889899368169014906e+02 9.958846734067359421e+02 1.133081263632536320e+03 1.294725990218157222e+03 1.464157594958653135e+03 1.486274311308866345e+03 1.369447291652933473e+03 1.228320145135440043e+03 1.093320827245715009e+03 9.754324597970012292e+02 8.713838355985498083e+02 7.697188443914222944e+02 6.649577970085368861e+02 5.431279094999230210e+02 3.839048252721100312e+02 5.422933172551670395e+02 6.798448977436171390e+02 7.930756153066217848e+02 8.790711919662211358e+02 9.825861831494920580e+02 1.105812172372161058e+03 1.255476808461768314e+03 1.343422221046597087e+03 1.266926820956484789e+03 1.079392334086699520e+03 9.053779170266884648e+02 7.631449743278132019e+02 6.394356492088915047e+02 5.430991691813661646e+02 4.603805801374464295e+02 5.648256516702414274e+02 6.560629262976083282e+02 6.238096280370269824e+02 5.116565407369896548e+02 5.747482935484090376e+02 6.481635855175222787e+02 7.292458204457614102e+02 8.197610862806790237e+02 9.232246358424162054e+02 1.044560353509627930e+03 1.190154550189352221e+03 1.364854668931912329e+03 1.533908322993225056e+03 1.506871072928202466e+03 1.325855008021562753e+03 1.150562333657343743e+03 1.005697226840703252e+03
1.275001562697042573e+03 1.297621267312343662e+03 1.148099516604587507e+03 9.820947115910147431e+02 8.338846817597716381e+02 7.055994918503024564e+02 5.915460570854630760e+02 5.134280737485389636e+02 6.674916837474679596e+02 8.179080589860674309e+02 9.708109281646883346e+02 1.110977124687974765e+03 1.243987396451315817e+03 1.367439975406999565e+03 1.446430592975156742e+03 1.386092984009666452e+03 1.248850275597636710e+03 1.129935701277344606e+03 9.741449377728331456e+02 7.963891886482928157e+02 6.336844907033997742e+02 7.329823121693107169e+02 8.511488478262562012e+02 9.851589334717801876e+02 1.138688884445519989e+03 1.310297341389564508e+03 1.464965614793765781e+03 1.450131450454084188e+03 1.317416511297967645e+03 1.170031511354246277e+03 1.037753002202476409e+03 9.307523170808680106e+02 8.324288062662212724e+02 6.841299925361655596e+02 5.246666633537582811e+02 3.732477040381757547e+02 5.321632676484271087e+02 6.419614955141037171e+02 7.484135378758700199e+02 8.627327620650681865e+02 1.008269045729453637e+03 1.148096896632687958e+03 1.291027149937540571e+03 1.411013485397115346e+03 1.390530496014186383e+03 1.207390472986873419e+03 1.025569290965911705e+03 8.719700796538784289e+02 7.442323922173793562e+02 6.341744388786925128e+02 5.351408346065013575e+02 4.458297535731301195e+02 3.731360303574925865e+02 5.193209509617679487e+02 5.690233828483316074e+02 6.697913886808900088e+02 7.966663523627261156e+02 9.374416737045464743e+02 1.095750833788878708e+03 1.269224672286844907e+03 1.420296771699428518e+03 1.406075459536203880e+03 1.239491351675429542e+03 1.067463078143227904e+03 9.174697629840487707e+02 7.876087576223342239e+02 6.726820747525061961e+02 5.777659039714876599e+02 6.676781314720494720e+02 6.024441633309384088e+02 7.406107037137536508e+02 8.675999929335343950e+02 9.884354620295446239e+02 1.102980962362113360e+03 1.225723622766345443e+03 1.376998712852673634e+03 1.515068727574511513e+03 1.494074667787664566e+03 1.326315731933096686e+03 1.137716372397808300e+03 9.719975667926715914e+02 8.259916648700375390e+02 7.136926337917248020e+02 6.136108194496041506e+02 5.223238345572740400e+02 4.391637591963214504e+02 3.661835537160916374e+02 4.930003183054342344e+02 5.824933985667997831e+02 6.530971166467434159e+02 7.331827087428174536e+02 8.394599131488301964e+02 9.827218523103813368e+02 1.139648213509819925e+03 1.294973323247699454e+03 1.301017011586465969e+03 1.159222880066611879e+03 1.020421285325832855e+03 9.142856062102416672e+02 8.028722051672723410e+02 6.938126298102233704e+02 5.720958889953344624e+02 4.254228763825900046e+02 5.398659673224133257e+02 4.726919201618330817e+02 6.023036556659488951e+02 7.008958783592161126e+02 7.800620409363212957e+02 8.576860004979581618e+02 9.331154079744669616e+02 1.035297734502714093e+03 1.151158301677669897e+03 1.295926474105696116e+03 1.441909509918667936e+03 1.564739482227918188e+03 1.503029155295499777e+03 1.326134463986692481e+03 1.154455981000510292e+03 1.009355603548057957e+03
1.241252167714821326e+03 1.283248220803454615e+03 1.143125120907533301e+03 9.779668358278212281e+02 8.294604941244991778e+02 7.008159372709937998e+02 5.877368120174403430e+02 4.898749906474570253e+02 6.427240226685527205e+02 8.135559176155122714e+02 9.833479753299528738e+02 1.120286998771736307e+03 1.250008747212616072e+03 1.380283506039077793e+03 1.428076340377864881e+03 1.304394069641263286e+03 1.132604054391539648e+03 1.015745808692039532e+03 9.053931632474489106e+02 7.761435791669370019e+02 6.048675961390960083e+02 7.591708529971755297e+02 8.919697139968809552e+02 1.025394914271835887e+03 1.172062090238514884e+03 1.327657345376384455e+03 1.456373661511126556e+03 1.447595553713187428e+03 1.318803677856048353e+03 1.168888993048119346e+03 1.029150523034502839e+03 9.046764598271288378e+02 7.880505967033215029e+02 6.636146270412145896e+02 5.224964959867882044e+02 3.547257282452864615e+02 4.261176943345340078e+02 5.135972074537390881e+02 6.134351220980367998e+02 7.281479199676290364e+02 8.614128817801823743e+02 1.015698330406983700e+03 1.195026536242987959e+03 1.379294463735534691e+03 1.406530820601731648e+03 1.281289012847525328e+03 1.130833108194849501e+03 9.920837528582483174e+02 8.698485346446038875e+02 7.591702074950802626e+02 6.486543380920209074e+02 5.031589019340093500e+02 3.566963882898902511e+02 4.340573068402912895e+02 5.463643870959288051e+02 6.637018413238795347e+02 7.907243388446216841e+02 9.309368586198348794e+02 1.088021025319428418e+03 1.258069997376451056e+03 1.401592813464506435e+03 1.380491721034169586e+03 1.238328022221767242e+03 1.080956821388787830e+03 9.379037156639884643e+02 8.100733976601425184e+02 6.837286535267137424e+02 5.289743905772568269e+02 5.422671518110095121e+02 7.014722634882427883e+02 8.424065738740720235e+02 9.768661232061217561e+02 1.102108369634336668e+03 1.221721599149061603e+03 1.340155357934183712e+03 1.463123329228880266e+03 1.573046657829023843e+03 1.516156002605601770e+03 1.332812159164247078e+03 1.157907229583019443e+03 1.013591617093112177e+03 9.405203331215385560e+02 8.449534246246251996e+02 7.507652369357468842e+02 6.617015004971076451e+02 5.848056715769472476e+02 4.796673799922120907e+02 3.421507473110822275e+02 4.910992501764595204e+02 5.100392526373362898e+02 6.062914003733881145e+02 7.237529072729823838e+02 8.694635959683433839e+02 1.060983635156751006e+03 1.261111515491899354e+03 1.333243939933402316e+03 1.243184385558526856e+03 1.117729864207497485e+03 9.882179591604972302e+02 8.639985963359176822e+02 7.281908661892869077e+02 5.633825681675726855e+02 3.962313762589560611e+02 4.218313105305354611e+02 5.782399504822852805e+02 7.108469337243355994e+02 8.292336073898122777e+02 9.257991406798435037e+02 1.010897978689469369e+03 1.092182889684215070e+03 1.169530682673049341e+03 1.286217038525630642e+03 1.413629172329048515e+03 1.549735694526393445e+03 1.607546732198468362e+03 1.495263221264877302e+03 1.309087339438283379e+03 1.134890657449322816e+03 9.853090151144435822e+02
