ncols        240
nrows        79
xllcorner    -105.550416667
yllcorner    40.1020833333
cellsize     0.000833333333
NODATA_value 0
2990 2973 2959 2943 2927 2916 2903 2884 2872 2857 2844 2832 2826 2829 2828 2819 2814 2803 2787 2761 2732 2715 2717 2733 2749 2763 2780 2805 2832 2850 2861 2861 2858 2855 2859 2867 2877 2889 2914 2943 2958 2964 2969 2980 2996 3011 3027 3037 3050 3064 3072 3062 3040 3006 2980 2952 2918 2878 2845 2821 2810 2798 2789 2783 2774 2759 2747 2739 2729 2707 2688 2693 2728 2768 2787 2781 2756 2740 2728 2708 2688 2674 2661 2643 2628 2617 2612 2600 2588 2573 2556 2545 2534 2526 2524 2530 2528 2533 2539 2538 2532 2528 2522 2518 2510 2502 2495 2495 2489 2485 2477 2469 2462 2455 2450 2447 2437 2422 2401 2382 2367 2368 2366 2352 2341 2329 2318 2313 2309 2308 2317 2347 2385 2404 2406 2407 2402 2391 2381 2374 2382 2390 2400 2403 2403 2399 2389 2373 2347 2317 2318 2341 2369 2392 2420 2433 2422 2402 2391 2388 2372 2352 2350 2358 2364 2367 2363 2361 2352 2343 2327 2298 2288 2284 2262 2247 2233 2226 2212 2182 2164 2157 2161 2155 2149 2147 2141 2137 2145 2147 2122 2124 2136 2125 2123 2122 2119 2125 2129 2123 2104 2096 2097 2111 2147 2186 2234 2280 2311 2307 2291 2266 2262 2255 2236 2219 2200 2187 2199 2225 2217 2218 2216 2191 2168 2179 2208 2248 2275 2288 2288 2266 2248 2223 2219 2226 2222 2203 2183 2162
3017 3000 2986 2971 2953 2936 2917 2900 2889 2875 2862 2854 2854 2850 2845 2841 2835 2817 2796 2758 2722 2726 2741 2757 2773 2785 2804 2831 2861 2880 2893 2899 2895 2890 2888 2897 2905 2915 2928 2955 2978 2987 2991 3004 3019 3034 3046 3060 3071 3071 3060 3043 3019 2992 2964 2932 2900 2869 2837 2812 2799 2789 2780 2773 2764 2755 2740 2734 2724 2704 2680 2679 2706 2743 2783 2790 2774 2761 2743 2721 2699 2675 2654 2633 2619 2608 2600 2590 2578 2569 2552 2542 2537 2537 2537 2543 2547 2553 2551 2546 2538 2533 2530 2528 2524 2514 2500 2487 2478 2474 2473 2470 2464 2453 2441 2431 2425 2413 2399 2389 2394 2390 2378 2360 2342 2326 2311 2311 2319 2335 2351 2382 2411 2418 2413 2406 2396 2391 2390 2387 2394 2409 2411 2410 2407 2399 2381 2361 2338 2327 2342 2365 2393 2418 2429 2434 2425 2405 2390 2383 2373 2362 2357 2352 2351 2347 2344 2350 2350 2353 2356 2338 2324 2317 2295 2274 2250 2230 2224 2217 2193 2171 2166 2172 2191 2191 2178 2181 2203 2204 2178 2164 2163 2179 2194 2173 2141 2119 2108 2108 2103 2118 2135 2167 2207 2249 2286 2315 2344 2342 2329 2323 2319 2311 2296 2281 2253 2238 2247 2270 2282 2281 2259 2229 2212 2218 2250 2275 2282 2281 2268 2242 2226 2208 2189 2188 2184 2169 2151 2132
3056 3039 3016 2999 2980 2954 2935 2917 2907 2898 2891 2881 2869 2860 2852 2844 2831 2815 2788 2753 2732 2746 2762 2779 2794 2810 2826 2849 2877 2898 2922 2935 2934 2929 2925 2925 2930 2936 2948 2973 2996 3006 3015 3028 3043 3059 3070 3082 3087 3070 3043 3023 3001 2976 2942 2908 2881 2853 2826 2804 2796 2783 2771 2758 2751 2744 2734 2722 2707 2691 2674 2667 2684 2713 2754 2782 2780 2767 2755 2739 2704 2673 2645 2623 2611 2600 2592 2579 2570 2566 2554 2546 2542 2542 2545 2553 2558 2562 2559 2556 2549 2546 2543 2537 2532 2517 2501 2482 2471 2464 2468 2471 2474 2465 2448 2434 2424 2415 2409 2407 2403 2394 2372 2351 2327 2320 2329 2354 2367 2377 2394 2416 2428 2427 2419 2410 2401 2413 2426 2419 2406 2408 2409 2412 2408 2398 2374 2350 2346 2362 2378 2397 2415 2428 2436 2435 2424 2405 2389 2374 2366 2361 2354 2348 2339 2330 2329 2334 2335 2338 2354 2365 2353 2322 2287 2251 2216 2191 2188 2190 2175 2172 2196 2216 2243 2256 2246 2250 2259 2259 2244 2237 2232 2228 2224 2207 2176 2143 2124 2133 2162 2169 2160 2173 2214 2264 2305 2341 2380 2398 2401 2397 2376 2362 2353 2343 2308 2292 2304 2327 2347 2341 2314 2278 2260 2264 2270 2269 2262 2253 2233 2205 2185 2173 2155 2150 2143 2125 2112 2097
3098 3079 3052 3024 3005 2979 2953 2938 2933 2924 2913 2899 2883 2866 2851 2834 2814 2796 2779 2753 2745 2762 2781 2800 2814 2829 2846 2865 2886 2911 2940 2967 2979 2976 2963 2953 2956 2959 2970 2993 3015 3026 3034 3050 3067 3081 3089 3093 3085 3060 3034 3007 2985 2958 2926 2896 2867 2835 2813 2791 2781 2768 2752 2741 2737 2726 2718 2706 2692 2680 2670 2658 2665 2689 2732 2758 2759 2753 2747 2733 2695 2660 2631 2614 2597 2596 2592 2579 2568 2564 2558 2551 2548 2549 2550 2557 2566 2572 2576 2574 2569 2563 2560 2551 2540 2517 2494 2473 2460 2453 2457 2460 2461 2457 2451 2442 2433 2423 2412 2399 2390 2375 2354 2326 2317 2336 2365 2397 2414 2425 2437 2444 2440 2432 2425 2415 2416 2433 2449 2446 2430 2419 2413 2413 2405 2393 2368 2349 2372 2395 2408 2420 2427 2434 2434 2430 2424 2412 2399 2386 2371 2360 2350 2343 2331 2323 2318 2314 2320 2323 2338 2357 2361 2333 2292 2247 2214 2192 2191 2195 2215 2236 2263 2293 2309 2324 2326 2322 2319 2307 2284 2253 2232 2217 2199 2185 2177 2180 2189 2208 2224 2230 2214 2200 2200 2233 2278 2325 2383 2439 2459 2454 2446 2442 2431 2407 2377 2371 2370 2382 2409 2397 2369 2335 2309 2285 2266 2249 2236 2221 2206 2179 2155 2141 2126 2117 2107 2100 2102 2110
3127 3100 3070 3043 3018 2991 2975 2967 2957 2945 2923 2904 2885 2869 2850 2834 2816 2799 2783 2761 2757 2778 2797 2813 2831 2847 2862 2879 2898 2925 2955 2985 3010 3012 2999 2983 2979 2981 2993 3015 3035 3046 3058 3071 3087 3097 3102 3091 3071 3049 3018 2996 2978 2948 2913 2888 2853 2824 2802 2786 2773 2760 2743 2734 2726 2721 2715 2700 2684 2675 2673 2657 2648 2667 2699 2713 2719 2717 2711 2696 2666 2636 2615 2597 2589 2595 2591 2579 2573 2567 2558 2552 2551 2552 2555 2560 2567 2569 2575 2578 2575 2573 2568 2553 2540 2513 2483 2461 2446 2440 2439 2446 2453 2449 2444 2439 2432 2423 2410 2402 2396 2381 2353 2332 2332 2361 2398 2422 2438 2453 2458 2459 2454 2446 2431 2424 2432 2449 2466 2465 2451 2441 2426 2413 2396 2380 2367 2376 2396 2404 2414 2424 2431 2435 2436 2433 2429 2423 2419 2404 2389 2372 2360 2347 2337 2332 2323 2313 2307 2304 2316 2334 2343 2333 2303 2273 2249 2221 2197 2213 2257 2295 2323 2347 2367 2382 2382 2375 2363 2320 2278 2235 2212 2205 2212 2215 2215 2226 2227 2237 2267 2279 2270 2253 2235 2234 2267 2320 2377 2443 2476 2481 2478 2475 2465 2450 2433 2418 2407 2415 2403 2378 2358 2333 2302 2269 2247 2222 2209 2199 2186 2177 2170 2165 2147 2121 2114 2135 2152 2175
3116 3094 3069 3046 3026 3003 2990 2983 2965 2942 2922 2901 2885 2872 2852 2833 2817 2798 2781 2762 2769 2794 2811 2828 2849 2869 2883 2894 2913 2937 2966 2999 3030 3038 3027 3018 3012 3009 3018 3034 3051 3061 3076 3085 3094 3097 3090 3076 3055 3035 3009 2987 2962 2934 2909 2878 2844 2819 2798 2786 2772 2755 2740 2731 2725 2724 2715 2693 2674 2664 2663 2651 2634 2648 2668 2681 2694 2698 2680 2652 2634 2616 2601 2588 2577 2575 2572 2571 2572 2565 2555 2547 2545 2543 2544 2546 2548 2549 2559 2567 2568 2568 2555 2534 2512 2488 2467 2452 2436 2425 2424 2437 2445 2445 2441 2439 2431 2418 2397 2390 2391 2389 2376 2342 2331 2365 2405 2434 2448 2461 2467 2466 2461 2454 2443 2431 2446 2463 2478 2477 2464 2447 2432 2414 2393 2381 2386 2390 2399 2407 2414 2422 2425 2428 2436 2434 2425 2417 2411 2402 2391 2378 2368 2356 2343 2331 2330 2322 2312 2303 2297 2302 2317 2320 2299 2265 2238 2220 2205 2229 2270 2301 2321 2337 2359 2383 2398 2386 2360 2331 2282 2237 2240 2251 2255 2258 2265 2274 2262 2261 2296 2323 2331 2307 2284 2275 2288 2331 2392 2440 2456 2459 2458 2450 2442 2431 2408 2394 2382 2381 2372 2354 2328 2306 2280 2256 2234 2229 2227 2228 2218 2196 2164 2144 2140 2136 2125 2126 2151 2196
3079 3064 3044 3030 3015 2998 2980 2958 2939 2928 2916 2900 2879 2867 2850 2835 2817 2794 2773 2771 2791 2811 2830 2849 2867 2880 2900 2914 2930 2949 2978 3015 3054 3068 3060 3050 3043 3038 3046 3059 3071 3076 3079 3081 3080 3076 3067 3054 3038 3022 2998 2975 2949 2923 2895 2862 2838 2817 2800 2785 2764 2750 2733 2719 2712 2709 2701 2685 2666 2648 2643 2636 2626 2628 2651 2674 2683 2674 2653 2630 2613 2600 2588 2566 2550 2537 2537 2542 2556 2564 2554 2542 2534 2527 2524 2522 2526 2536 2547 2557 2555 2547 2536 2514 2488 2467 2454 2444 2432 2416 2411 2424 2429 2430 2432 2434 2426 2415 2394 2378 2369 2362 2353 2340 2340 2363 2395 2422 2441 2460 2472 2477 2474 2466 2450 2439 2453 2473 2483 2482 2469 2451 2435 2414 2395 2399 2407 2404 2402 2405 2408 2407 2407 2410 2418 2420 2410 2390 2385 2378 2368 2356 2353 2349 2341 2324 2314 2313 2312 2305 2293 2277 2281 2285 2290 2272 2242 2213 2215 2232 2257 2291 2311 2325 2351 2376 2388 2371 2337 2298 2265 2245 2282 2302 2301 2309 2319 2318 2305 2296 2324 2357 2371 2362 2339 2334 2345 2362 2391 2409 2410 2403 2404 2400 2402 2402 2391 2374 2358 2345 2336 2320 2304 2283 2268 2258 2255 2263 2265 2253 2230 2195 2157 2139 2136 2134 2129 2128 2160 2203
3039 3026 3011 2999 2989 2968 2949 2924 2910 2898 2884 2868 2854 2840 2828 2815 2796 2783 2784 2793 2808 2832 2851 2868 2884 2899 2916 2933 2951 2969 2996 3031 3067 3091 3089 3080 3073 3070 3074 3081 3088 3084 3082 3074 3066 3056 3047 3040 3025 3004 2982 2953 2934 2907 2879 2858 2837 2814 2795 2777 2759 2743 2729 2711 2702 2695 2686 2673 2659 2644 2638 2630 2619 2611 2628 2645 2647 2638 2625 2611 2597 2585 2573 2551 2534 2530 2509 2511 2533 2546 2546 2539 2529 2517 2509 2505 2510 2524 2538 2544 2538 2523 2504 2490 2468 2447 2436 2431 2426 2406 2398 2410 2410 2409 2417 2420 2419 2412 2394 2373 2352 2340 2331 2335 2355 2384 2406 2431 2444 2459 2475 2483 2486 2479 2465 2454 2456 2473 2486 2487 2477 2464 2449 2421 2413 2429 2436 2422 2411 2406 2401 2396 2391 2389 2390 2393 2382 2363 2350 2347 2339 2327 2321 2321 2324 2321 2310 2292 2291 2295 2287 2267 2252 2246 2253 2258 2255 2249 2214 2221 2262 2303 2333 2340 2345 2361 2367 2349 2322 2281 2250 2266 2307 2341 2365 2380 2381 2375 2365 2355 2364 2377 2393 2402 2398 2398 2406 2410 2401 2387 2376 2367 2362 2359 2359 2366 2367 2367 2368 2355 2340 2327 2315 2302 2298 2299 2300 2298 2283 2258 2228 2195 2164 2146 2145 2143 2149 2160 2176 2212
3006 2989 2972 2959 2950 2933 2913 2896 2888 2876 2862 2851 2843 2832 2822 2807 2796 2804 2814 2823 2835 2854 2873 2891 2910 2926 2937 2954 2974 2992 3016 3047 3081 3112 3119 3111 3105 3106 3108 3111 3109 3098 3084 3068 3052 3039 3031 3027 3012 2990 2969 2941 2913 2889 2867 2845 2826 2804 2790 2778 2767 2749 2724 2709 2698 2694 2688 2678 2670 2656 2643 2630 2617 2605 2600 2607 2614 2613 2602 2592 2577 2563 2553 2543 2547 2537 2509 2488 2508 2525 2531 2532 2525 2515 2504 2495 2496 2504 2514 2521 2515 2503 2483 2464 2446 2429 2419 2410 2406 2391 2392 2402 2395 2387 2388 2395 2401 2400 2386 2365 2343 2338 2350 2372 2385 2412 2439 2465 2477 2485 2487 2494 2498 2494 2483 2474 2467 2468 2481 2489 2486 2472 2459 2440 2430 2439 2449 2448 2429 2409 2396 2386 2380 2376 2372 2364 2356 2344 2335 2322 2317 2308 2296 2295 2296 2306 2307 2285 2271 2272 2260 2247 2235 2231 2231 2225 2231 2224 2217 2241 2291 2337 2363 2354 2335 2321 2319 2311 2293 2266 2252 2277 2312 2351 2390 2412 2425 2415 2400 2389 2380 2377 2385 2400 2408 2404 2405 2409 2411 2405 2387 2370 2351 2340 2334 2330 2340 2350 2355 2358 2354 2347 2344 2336 2329 2314 2300 2288 2273 2254 2229 2207 2174 2152 2164 2181 2200 2206 2195 2212
2981 2966 2951 2941 2931 2924 2913 2909 2903 2894 2883 2871 2862 2855 2842 2830 2818 2826 2836 2848 2858 2872 2889 2914 2933 2947 2958 2976 2999 3018 3040 3066 3094 3124 3145 3143 3141 3142 3142 3136 3125 3104 3086 3060 3042 3024 3015 3007 2989 2975 2954 2926 2897 2867 2845 2827 2811 2801 2792 2783 2772 2755 2735 2714 2698 2690 2683 2672 2657 2643 2632 2622 2612 2603 2596 2591 2588 2590 2583 2576 2562 2559 2563 2557 2548 2525 2495 2482 2494 2504 2513 2519 2517 2511 2502 2491 2482 2478 2490 2494 2490 2484 2475 2458 2442 2424 2403 2385 2377 2368 2376 2383 2375 2366 2363 2370 2381 2373 2360 2348 2342 2357 2384 2403 2421 2450 2474 2500 2514 2522 2517 2515 2512 2510 2504 2493 2484 2479 2480 2486 2485 2478 2471 2457 2444 2448 2457 2459 2447 2423 2402 2389 2378 2366 2363 2355 2339 2325 2318 2302 2286 2283 2282 2279 2279 2290 2299 2289 2264 2250 2241 2240 2250 2272 2271 2243 2228 2223 2242 2279 2325 2364 2373 2349 2311 2282 2276 2275 2267 2260 2265 2283 2316 2351 2378 2404 2409 2394 2383 2376 2364 2364 2380 2392 2396 2384 2376 2395 2417 2430 2417 2396 2374 2352 2331 2315 2319 2324 2328 2337 2346 2346 2340 2336 2314 2294 2274 2260 2259 2257 2249 2229 2190 2159 2169 2189 2215 2242 2258 2255
2975 2965 2961 2951 2945 2942 2936 2931 2921 2912 2904 2894 2883 2872 2865 2854 2841 2846 2859 2868 2879 2892 2904 2931 2956 2971 2986 3001 3025 3052 3070 3090 3117 3147 3176 3186 3187 3184 3171 3153 3131 3108 3082 3055 3032 3010 2995 2973 2957 2947 2931 2904 2877 2848 2824 2809 2798 2795 2790 2784 2771 2758 2740 2719 2702 2685 2676 2661 2645 2631 2622 2617 2615 2612 2605 2593 2589 2584 2581 2579 2581 2584 2580 2565 2550 2533 2508 2489 2477 2473 2484 2504 2504 2500 2494 2489 2479 2469 2468 2472 2477 2485 2482 2463 2440 2419 2398 2378 2378 2380 2375 2368 2372 2374 2364 2356 2358 2349 2350 2360 2377 2388 2405 2429 2460 2495 2525 2541 2555 2558 2545 2537 2529 2524 2517 2510 2499 2492 2488 2493 2494 2486 2478 2470 2458 2461 2467 2470 2460 2439 2416 2397 2383 2368 2355 2346 2338 2322 2303 2286 2265 2266 2265 2262 2262 2273 2280 2281 2263 2240 2241 2270 2296 2311 2312 2304 2285 2274 2291 2316 2342 2372 2373 2342 2297 2277 2289 2297 2296 2299 2299 2299 2313 2338 2370 2391 2389 2376 2365 2360 2353 2354 2366 2370 2369 2362 2361 2385 2415 2426 2415 2397 2378 2365 2346 2322 2303 2298 2307 2323 2329 2328 2315 2301 2286 2273 2252 2239 2232 2231 2231 2214 2185 2160 2176 2198 2233 2264 2289 2313
2999 2989 2983 2974 2965 2960 2954 2950 2943 2935 2927 2920 2909 2897 2890 2878 2865 2869 2880 2886 2895 2911 2925 2948 2971 2988 3009 3033 3058 3080 3101 3122 3150 3173 3197 3210 3207 3189 3175 3156 3128 3101 3076 3049 3021 2998 2979 2957 2931 2914 2901 2883 2857 2833 2808 2793 2786 2786 2785 2782 2773 2757 2739 2717 2699 2679 2665 2651 2642 2641 2638 2635 2627 2616 2604 2596 2592 2593 2597 2604 2606 2606 2599 2590 2574 2556 2539 2518 2501 2477 2465 2472 2477 2473 2467 2473 2464 2452 2448 2456 2468 2477 2474 2452 2427 2408 2386 2380 2394 2404 2411 2407 2409 2404 2386 2359 2355 2360 2375 2394 2418 2431 2432 2450 2478 2511 2540 2559 2577 2575 2559 2546 2540 2533 2525 2516 2508 2501 2504 2510 2508 2501 2489 2480 2476 2476 2483 2485 2482 2461 2444 2419 2398 2387 2363 2345 2330 2323 2304 2289 2277 2286 2308 2293 2270 2256 2258 2261 2255 2244 2258 2285 2315 2341 2357 2358 2341 2338 2349 2366 2384 2387 2374 2341 2306 2284 2305 2327 2339 2347 2350 2349 2353 2357 2376 2388 2380 2364 2357 2353 2346 2342 2348 2345 2341 2346 2345 2361 2387 2394 2388 2373 2355 2344 2335 2325 2309 2292 2282 2285 2296 2296 2293 2277 2261 2246 2232 2220 2208 2203 2204 2188 2172 2172 2192 2226 2266 2292 2310 2335
3024 3018 3009 3002 2991 2983 2979 2972 2963 2958 2951 2944 2937 2924 2911 2903 2894 2894 2903 2911 2920 2928 2941 2959 2980 3005 3029 3057 3081 3109 3135 3161 3180 3191 3200 3203 3197 3183 3164 3143 3118 3089 3068 3043 3015 2993 2968 2944 2914 2891 2872 2856 2838 2817 2800 2789 2782 2784 2781 2776 2767 2747 2725 2707 2687 2672 2658 2658 2660 2658 2649 2634 2618 2604 2598 2591 2585 2590 2602 2612 2608 2602 2597 2592 2582 2568 2550 2533 2518 2496 2467 2453 2455 2449 2444 2451 2442 2429 2428 2443 2458 2460 2444 2424 2404 2389 2381 2392 2416 2431 2438 2434 2425 2413 2400 2395 2382 2375 2393 2416 2435 2455 2464 2469 2486 2511 2531 2551 2569 2577 2570 2563 2558 2547 2536 2523 2519 2523 2530 2527 2521 2514 2501 2490 2486 2493 2502 2502 2495 2488 2465 2430 2405 2384 2366 2349 2336 2326 2313 2295 2281 2295 2329 2331 2306 2276 2259 2254 2253 2254 2269 2284 2306 2331 2364 2385 2392 2401 2402 2394 2379 2363 2352 2332 2308 2291 2309 2341 2370 2388 2394 2400 2405 2405 2401 2392 2377 2364 2353 2344 2338 2329 2327 2322 2322 2326 2324 2335 2352 2355 2352 2341 2329 2317 2312 2309 2297 2286 2276 2264 2261 2268 2273 2268 2254 2242 2236 2230 2213 2187 2177 2179 2194 2203 2213 2244 2275 2303 2323 2349
3063 3048 3039 3032 3020 3010 3006 3002 2990 2981 2974 2965 2958 2949 2941 2936 2924 2920 2925 2931 2937 2941 2954 2973 2995 3017 3044 3073 3103 3131 3156 3176 3187 3196 3199 3197 3193 3172 3149 3129 3107 3080 3056 3037 3014 2990 2967 2941 2910 2882 2854 2837 2823 2808 2793 2784 2777 2775 2768 2757 2743 2725 2707 2692 2675 2670 2676 2676 2672 2658 2643 2623 2607 2601 2595 2587 2579 2576 2581 2595 2596 2589 2583 2577 2569 2562 2544 2529 2510 2486 2467 2481 2495 2484 2456 2443 2442 2436 2422 2425 2433 2438 2422 2398 2385 2386 2395 2423 2452 2472 2482 2469 2447 2428 2423 2419 2404 2389 2394 2413 2433 2457 2481 2499 2518 2539 2556 2568 2581 2596 2598 2589 2576 2562 2544 2534 2539 2546 2545 2543 2535 2523 2514 2505 2498 2500 2513 2517 2510 2501 2483 2445 2426 2410 2389 2367 2354 2344 2321 2286 2286 2323 2351 2349 2329 2303 2298 2299 2290 2284 2294 2300 2307 2334 2363 2394 2418 2430 2413 2382 2351 2327 2315 2308 2302 2312 2326 2355 2390 2415 2425 2431 2436 2435 2426 2412 2399 2380 2365 2355 2346 2333 2323 2317 2310 2308 2304 2308 2316 2316 2311 2306 2302 2294 2287 2284 2271 2258 2254 2250 2247 2254 2260 2260 2258 2259 2254 2244 2223 2190 2186 2214 2246 2270 2269 2259 2269 2293 2318 2347
3098 3085 3072 3064 3056 3046 3038 3031 3022 3011 3002 2992 2984 2974 2963 2957 2953 2950 2948 2951 2957 2964 2977 2995 3014 3039 3060 3088 3115 3139 3162 3179 3189 3198 3201 3198 3184 3159 3137 3115 3086 3063 3035 3015 2989 2966 2944 2923 2898 2867 2847 2830 2818 2805 2792 2781 2771 2764 2757 2743 2725 2707 2694 2688 2685 2685 2688 2680 2667 2647 2627 2613 2611 2620 2613 2598 2583 2571 2565 2569 2572 2568 2567 2561 2551 2543 2528 2510 2488 2475 2493 2509 2513 2506 2493 2488 2480 2462 2441 2426 2414 2419 2405 2391 2394 2413 2436 2470 2497 2517 2522 2502 2475 2461 2452 2435 2420 2424 2415 2417 2449 2468 2485 2508 2532 2554 2577 2594 2607 2614 2613 2606 2592 2575 2561 2553 2557 2564 2561 2555 2547 2532 2521 2511 2503 2503 2514 2516 2501 2478 2461 2450 2432 2412 2385 2356 2338 2321 2303 2289 2303 2341 2362 2361 2345 2331 2343 2344 2324 2313 2325 2332 2325 2342 2375 2402 2431 2429 2407 2378 2347 2318 2316 2329 2339 2350 2356 2375 2403 2416 2421 2426 2430 2437 2444 2439 2423 2397 2381 2367 2355 2345 2336 2325 2314 2301 2291 2287 2288 2284 2277 2272 2272 2267 2261 2258 2251 2254 2254 2237 2242 2250 2256 2255 2264 2256 2247 2236 2228 2201 2187 2210 2247 2285 2305 2308 2309 2314 2328 2354
3145 3132 3119 3110 3099 3090 3083 3072 3058 3041 3031 3019 3010 3002 2987 2979 2977 2972 2972 2974 2977 2988 3001 3022 3048 3071 3091 3112 3132 3155 3172 3186 3200 3208 3206 3191 3170 3145 3122 3098 3068 3046 3017 2995 2967 2944 2922 2900 2880 2860 2842 2830 2816 2802 2790 2784 2774 2767 2759 2747 2728 2716 2712 2708 2705 2698 2690 2673 2655 2637 2626 2624 2628 2626 2614 2600 2586 2575 2563 2552 2545 2546 2549 2547 2538 2527 2506 2488 2490 2497 2514 2519 2512 2508 2504 2503 2495 2476 2463 2437 2409 2404 2394 2393 2419 2454 2477 2503 2522 2533 2537 2525 2512 2501 2481 2457 2452 2453 2441 2439 2465 2490 2501 2505 2528 2550 2571 2595 2616 2622 2618 2604 2592 2584 2576 2568 2566 2568 2568 2564 2553 2532 2512 2502 2492 2487 2486 2491 2478 2437 2408 2398 2391 2368 2346 2331 2309 2299 2301 2308 2316 2347 2365 2372 2369 2369 2376 2375 2359 2351 2359 2366 2352 2354 2378 2408 2424 2412 2400 2379 2349 2322 2330 2355 2368 2381 2385 2396 2408 2411 2410 2409 2409 2420 2435 2434 2417 2392 2370 2352 2341 2334 2325 2317 2310 2302 2287 2277 2276 2275 2270 2270 2267 2266 2261 2260 2265 2274 2263 2239 2235 2241 2241 2249 2253 2242 2222 2209 2204 2198 2191 2205 2243 2272 2295 2314 2332 2350 2364 2374
3190 3176 3168 3157 3149 3145 3132 3118 3097 3082 3066 3049 3037 3023 3010 3004 2999 2995 2993 2996 2997 3007 3020 3041 3069 3094 3117 3139 3157 3171 3188 3197 3210 3218 3206 3185 3159 3133 3109 3078 3060 3039 3011 2989 2961 2938 2912 2893 2873 2858 2842 2832 2816 2804 2795 2784 2775 2765 2757 2750 2745 2750 2743 2730 2717 2704 2689 2668 2653 2641 2643 2643 2635 2625 2615 2602 2592 2584 2569 2553 2543 2533 2533 2532 2528 2513 2492 2497 2509 2513 2517 2512 2505 2500 2500 2495 2484 2468 2450 2427 2400 2394 2405 2433 2461 2494 2510 2525 2534 2540 2548 2544 2536 2522 2503 2492 2492 2482 2460 2463 2491 2511 2521 2523 2536 2555 2570 2587 2600 2610 2608 2597 2585 2580 2574 2572 2570 2567 2569 2563 2544 2515 2489 2473 2453 2433 2430 2440 2434 2384 2355 2349 2333 2327 2319 2315 2307 2317 2340 2340 2324 2340 2354 2369 2382 2393 2406 2414 2406 2398 2406 2407 2393 2383 2387 2411 2415 2395 2374 2354 2337 2322 2341 2377 2397 2403 2404 2403 2402 2400 2398 2394 2394 2400 2407 2409 2399 2380 2356 2343 2330 2319 2309 2306 2304 2298 2289 2292 2295 2287 2287 2292 2292 2292 2286 2280 2270 2265 2255 2242 2228 2224 2225 2233 2230 2217 2213 2221 2224 2213 2200 2210 2233 2255 2282 2307 2338 2364 2385 2404
3237 3224 3215 3209 3202 3193 3181 3164 3139 3114 3090 3072 3057 3040 3024 3017 3016 3013 3012 3011 3014 3023 3042 3065 3090 3115 3140 3162 3177 3188 3201 3209 3219 3220 3202 3178 3157 3130 3104 3079 3060 3037 3022 2992 2966 2942 2919 2899 2878 2860 2845 2834 2822 2809 2796 2788 2779 2776 2776 2777 2774 2767 2749 2730 2714 2697 2681 2664 2658 2662 2668 2659 2641 2628 2619 2607 2598 2584 2567 2554 2542 2533 2523 2521 2516 2505 2491 2500 2515 2514 2512 2507 2496 2490 2486 2476 2470 2459 2444 2413 2402 2418 2460 2487 2502 2521 2536 2544 2546 2554 2564 2563 2554 2539 2527 2530 2527 2508 2483 2484 2504 2522 2534 2537 2545 2561 2572 2580 2584 2589 2589 2587 2580 2575 2569 2565 2561 2554 2551 2544 2526 2499 2480 2459 2425 2395 2398 2410 2384 2364 2381 2389 2387 2372 2369 2363 2359 2358 2372 2373 2358 2344 2352 2373 2396 2424 2444 2454 2456 2445 2444 2440 2431 2412 2402 2399 2397 2382 2356 2333 2340 2351 2378 2409 2415 2407 2400 2397 2395 2393 2390 2385 2384 2390 2395 2399 2397 2378 2361 2352 2336 2323 2307 2297 2295 2300 2305 2311 2307 2299 2303 2311 2320 2315 2305 2298 2286 2276 2264 2251 2243 2233 2226 2219 2211 2215 2233 2260 2266 2248 2225 2212 2218 2239 2276 2310 2340 2363 2378 2390
3278 3270 3264 3255 3250 3240 3225 3209 3183 3156 3130 3099 3075 3057 3041 3031 3027 3026 3023 3026 3038 3054 3071 3087 3114 3139 3161 3178 3190 3200 3211 3218 3216 3211 3199 3179 3161 3139 3117 3089 3071 3048 3027 3009 2983 2959 2935 2914 2893 2872 2853 2839 2830 2821 2809 2800 2796 2795 2794 2783 2776 2761 2741 2722 2702 2688 2676 2670 2673 2682 2677 2668 2652 2636 2625 2613 2601 2588 2571 2557 2548 2537 2526 2515 2504 2500 2512 2525 2525 2518 2508 2498 2486 2474 2468 2453 2446 2439 2426 2408 2405 2442 2485 2519 2532 2545 2558 2563 2563 2575 2580 2575 2564 2556 2558 2556 2546 2528 2511 2511 2520 2537 2554 2556 2552 2556 2564 2568 2568 2568 2569 2571 2571 2572 2573 2567 2556 2548 2544 2536 2528 2509 2491 2456 2416 2396 2424 2436 2431 2441 2443 2453 2453 2446 2439 2425 2398 2386 2393 2393 2382 2363 2357 2379 2406 2436 2462 2479 2479 2466 2456 2452 2447 2430 2407 2387 2375 2362 2345 2338 2366 2391 2413 2422 2415 2409 2403 2399 2396 2394 2388 2379 2375 2379 2387 2394 2400 2386 2364 2350 2340 2325 2306 2298 2315 2330 2335 2332 2321 2315 2320 2336 2350 2352 2339 2326 2309 2296 2279 2266 2254 2244 2233 2218 2218 2241 2264 2284 2291 2265 2251 2237 2223 2241 2278 2311 2328 2336 2348 2372
3267 3276 3285 3286 3280 3271 3251 3235 3212 3182 3150 3120 3096 3079 3059 3045 3042 3040 3041 3049 3065 3083 3099 3115 3140 3160 3174 3187 3196 3200 3206 3214 3212 3200 3192 3177 3164 3146 3131 3111 3089 3074 3054 3026 3000 2975 2956 2931 2909 2888 2869 2853 2840 2828 2820 2812 2806 2799 2792 2782 2770 2754 2735 2715 2699 2687 2682 2685 2692 2696 2695 2687 2673 2658 2641 2626 2618 2606 2588 2568 2550 2540 2525 2513 2510 2521 2531 2532 2524 2516 2503 2490 2481 2468 2458 2442 2432 2418 2408 2412 2431 2462 2503 2535 2550 2558 2570 2577 2581 2584 2588 2586 2581 2576 2576 2573 2563 2542 2534 2551 2555 2561 2570 2576 2575 2570 2561 2557 2556 2554 2555 2558 2565 2570 2568 2560 2546 2531 2532 2530 2522 2497 2468 2429 2400 2425 2469 2496 2494 2492 2500 2512 2518 2503 2485 2463 2444 2432 2424 2417 2402 2382 2365 2381 2413 2442 2466 2479 2470 2452 2435 2431 2428 2419 2402 2381 2364 2346 2344 2362 2385 2401 2418 2422 2416 2410 2406 2399 2397 2391 2388 2378 2373 2368 2371 2379 2384 2378 2362 2345 2333 2323 2309 2318 2340 2362 2364 2354 2344 2335 2338 2354 2368 2363 2347 2329 2321 2306 2290 2277 2257 2242 2226 2227 2245 2255 2272 2294 2294 2277 2272 2257 2240 2242 2263 2284 2301 2314 2335 2364
3236 3252 3269 3282 3286 3278 3262 3248 3223 3192 3162 3133 3111 3096 3082 3069 3065 3066 3068 3077 3093 3113 3131 3144 3159 3167 3169 3173 3175 3173 3175 3182 3178 3169 3164 3162 3160 3150 3136 3120 3101 3085 3066 3035 3009 2984 2958 2938 2921 2902 2883 2863 2848 2836 2826 2816 2804 2794 2784 2774 2759 2742 2722 2712 2702 2700 2702 2708 2708 2708 2705 2699 2683 2667 2648 2637 2626 2611 2589 2565 2546 2529 2517 2516 2528 2542 2541 2533 2523 2513 2498 2484 2474 2469 2466 2454 2440 2418 2413 2444 2474 2490 2516 2541 2558 2568 2577 2581 2587 2590 2596 2596 2595 2596 2595 2592 2580 2563 2565 2576 2580 2580 2578 2579 2578 2576 2568 2555 2542 2535 2542 2550 2560 2568 2563 2548 2529 2505 2499 2497 2491 2465 2437 2407 2404 2446 2495 2529 2529 2518 2515 2529 2541 2537 2524 2506 2489 2479 2467 2447 2425 2402 2382 2386 2402 2430 2455 2464 2453 2434 2411 2406 2404 2395 2384 2372 2359 2352 2354 2373 2392 2413 2422 2424 2417 2410 2405 2400 2401 2399 2397 2390 2379 2367 2361 2359 2358 2356 2350 2339 2323 2316 2315 2335 2364 2382 2390 2387 2379 2372 2365 2365 2369 2356 2334 2321 2309 2295 2278 2262 2247 2233 2231 2253 2271 2278 2284 2303 2306 2299 2304 2291 2270 2249 2259 2283 2311 2327 2349 2370
3207 3221 3236 3246 3257 3264 3251 3225 3204 3179 3154 3130 3112 3102 3097 3093 3095 3099 3099 3108 3123 3144 3153 3157 3161 3159 3155 3151 3144 3136 3131 3129 3124 3122 3123 3127 3131 3127 3118 3106 3092 3085 3071 3047 3018 2989 2962 2940 2923 2906 2892 2875 2859 2841 2829 2814 2804 2796 2783 2769 2754 2740 2726 2723 2723 2725 2724 2721 2716 2706 2698 2688 2671 2655 2643 2628 2612 2596 2576 2556 2540 2536 2543 2545 2547 2550 2547 2539 2524 2510 2498 2485 2481 2478 2474 2461 2446 2423 2414 2439 2474 2487 2500 2518 2543 2558 2576 2587 2591 2595 2600 2601 2605 2613 2611 2610 2599 2589 2593 2604 2606 2603 2594 2588 2581 2574 2565 2554 2535 2519 2521 2536 2551 2553 2541 2523 2503 2476 2460 2462 2460 2437 2408 2406 2424 2461 2502 2537 2542 2539 2533 2534 2542 2550 2553 2541 2528 2519 2501 2479 2451 2425 2416 2423 2424 2435 2455 2453 2437 2421 2404 2389 2387 2380 2370 2364 2369 2373 2369 2388 2415 2438 2447 2436 2427 2420 2414 2413 2404 2402 2399 2391 2379 2372 2364 2353 2346 2342 2334 2330 2326 2321 2327 2340 2353 2368 2387 2405 2413 2408 2396 2387 2384 2375 2356 2348 2330 2309 2283 2268 2252 2232 2254 2285 2306 2305 2306 2318 2320 2323 2326 2314 2296 2267 2264 2292 2327 2357 2383 2401
3180 3190 3202 3212 3223 3230 3205 3181 3163 3144 3123 3111 3099 3096 3100 3107 3122 3129 3134 3142 3155 3162 3164 3159 3158 3150 3140 3130 3119 3110 3100 3090 3080 3079 3079 3079 3080 3084 3087 3086 3082 3075 3064 3038 3013 2986 2964 2944 2927 2911 2901 2885 2868 2850 2836 2820 2805 2799 2786 2773 2759 2749 2743 2742 2736 2731 2722 2714 2707 2696 2684 2671 2655 2643 2631 2616 2597 2577 2564 2551 2549 2558 2562 2560 2559 2558 2550 2537 2523 2511 2505 2496 2490 2488 2483 2472 2460 2440 2421 2424 2444 2456 2469 2494 2521 2544 2573 2590 2598 2602 2602 2604 2610 2613 2615 2617 2615 2613 2618 2624 2626 2616 2605 2599 2593 2585 2577 2565 2547 2526 2509 2514 2527 2528 2515 2490 2469 2441 2427 2428 2426 2422 2410 2408 2433 2472 2509 2536 2544 2547 2545 2544 2549 2551 2559 2563 2556 2544 2524 2505 2489 2471 2459 2455 2455 2453 2454 2446 2428 2413 2399 2387 2385 2380 2371 2387 2406 2402 2385 2392 2413 2439 2454 2447 2440 2436 2431 2425 2411 2402 2399 2391 2377 2376 2372 2366 2361 2348 2337 2334 2333 2333 2341 2356 2367 2376 2387 2412 2427 2426 2412 2402 2402 2397 2381 2367 2355 2338 2309 2286 2267 2243 2262 2298 2335 2345 2336 2336 2342 2344 2344 2327 2302 2285 2278 2297 2336 2365 2381 2394
3146 3157 3166 3170 3176 3175 3162 3140 3122 3109 3098 3090 3087 3089 3097 3114 3137 3150 3157 3157 3158 3153 3143 3136 3132 3129 3118 3103 3093 3081 3066 3050 3044 3042 3037 3034 3033 3040 3048 3051 3050 3041 3028 3013 3001 2986 2972 2958 2943 2924 2912 2897 2877 2858 2841 2830 2814 2802 2792 2778 2766 2758 2749 2742 2734 2721 2712 2702 2696 2688 2679 2666 2654 2642 2626 2612 2598 2575 2561 2555 2559 2565 2567 2560 2555 2553 2545 2536 2529 2522 2518 2509 2500 2493 2483 2468 2457 2450 2437 2423 2433 2457 2472 2481 2501 2525 2551 2578 2596 2605 2605 2612 2619 2622 2621 2623 2623 2626 2631 2636 2636 2628 2624 2619 2610 2595 2584 2568 2559 2544 2520 2500 2495 2488 2472 2452 2438 2439 2454 2459 2445 2424 2413 2422 2442 2466 2502 2530 2543 2552 2554 2557 2564 2566 2565 2570 2565 2554 2540 2526 2515 2501 2490 2482 2475 2465 2456 2440 2419 2399 2395 2406 2418 2402 2387 2408 2434 2424 2406 2394 2402 2428 2444 2451 2459 2459 2451 2436 2420 2400 2394 2388 2376 2370 2362 2362 2355 2346 2336 2338 2347 2357 2354 2358 2368 2381 2395 2417 2438 2436 2418 2407 2408 2404 2395 2382 2365 2350 2332 2298 2266 2252 2275 2303 2341 2372 2370 2368 2372 2369 2360 2340 2317 2309 2302 2307 2322 2340 2355 2371
3111 3125 3133 3136 3139 3135 3122 3105 3090 3083 3074 3073 3072 3078 3091 3115 3135 3144 3146 3140 3133 3125 3113 3105 3097 3090 3082 3076 3064 3046 3031 3017 3009 3005 3000 2996 2998 3003 3010 3014 3013 3003 2993 2982 2973 2964 2953 2940 2926 2913 2901 2890 2870 2846 2825 2809 2793 2786 2777 2768 2761 2751 2739 2733 2723 2714 2704 2697 2694 2693 2687 2670 2658 2641 2627 2617 2606 2590 2569 2563 2564 2569 2565 2554 2545 2543 2542 2542 2540 2536 2529 2522 2509 2494 2475 2456 2443 2434 2428 2430 2437 2463 2485 2496 2497 2503 2527 2560 2591 2602 2604 2612 2623 2626 2629 2629 2629 2629 2631 2635 2636 2631 2631 2630 2620 2607 2594 2576 2564 2551 2535 2515 2492 2479 2455 2445 2464 2483 2495 2500 2493 2474 2461 2466 2465 2475 2507 2535 2545 2553 2561 2563 2569 2572 2570 2568 2562 2551 2539 2525 2515 2510 2504 2500 2485 2472 2461 2441 2418 2416 2431 2430 2418 2400 2395 2421 2444 2437 2426 2415 2412 2421 2429 2445 2465 2474 2460 2443 2422 2402 2390 2380 2373 2366 2358 2352 2347 2344 2351 2361 2367 2375 2378 2376 2375 2384 2401 2422 2438 2433 2416 2408 2398 2384 2375 2364 2346 2325 2302 2286 2255 2260 2291 2326 2354 2385 2407 2413 2410 2401 2382 2363 2349 2349 2345 2339 2337 2344 2350 2360
3076 3084 3095 3104 3114 3108 3089 3073 3063 3062 3061 3063 3063 3070 3084 3108 3119 3124 3124 3121 3114 3103 3093 3076 3060 3050 3041 3036 3031 3016 2999 2982 2975 2968 2967 2963 2969 2973 2973 2974 2973 2969 2964 2954 2947 2936 2921 2907 2895 2883 2874 2862 2843 2822 2804 2785 2769 2761 2760 2752 2744 2740 2731 2723 2711 2706 2699 2697 2694 2692 2688 2673 2659 2647 2635 2623 2605 2585 2575 2574 2570 2560 2550 2544 2540 2540 2542 2550 2551 2551 2542 2527 2509 2491 2469 2445 2433 2434 2442 2455 2457 2466 2486 2507 2521 2519 2520 2536 2567 2589 2608 2623 2629 2630 2631 2630 2628 2628 2628 2630 2632 2630 2628 2626 2616 2605 2592 2577 2563 2550 2539 2526 2502 2479 2455 2452 2484 2503 2517 2523 2523 2515 2504 2496 2486 2487 2516 2537 2548 2557 2563 2566 2570 2572 2572 2563 2551 2542 2530 2518 2509 2501 2498 2496 2483 2469 2455 2436 2425 2436 2450 2434 2421 2419 2410 2421 2442 2451 2448 2435 2428 2427 2427 2434 2443 2445 2440 2428 2414 2395 2384 2375 2366 2361 2356 2348 2347 2359 2375 2386 2397 2402 2405 2398 2392 2402 2419 2430 2435 2428 2416 2400 2380 2357 2349 2338 2324 2308 2302 2282 2255 2269 2310 2354 2386 2406 2438 2458 2454 2435 2415 2400 2390 2392 2383 2377 2379 2377 2373 2379
3044 3050 3058 3075 3084 3074 3058 3045 3043 3046 3050 3051 3055 3061 3080 3099 3107 3107 3104 3099 3091 3079 3064 3047 3030 3016 3007 2997 2989 2977 2963 2951 2944 2937 2932 2932 2936 2939 2941 2941 2941 2938 2937 2934 2929 2918 2905 2893 2877 2864 2850 2830 2812 2798 2784 2769 2759 2752 2743 2743 2739 2734 2725 2715 2706 2705 2704 2702 2697 2688 2675 2661 2650 2646 2635 2614 2591 2583 2585 2586 2572 2546 2526 2519 2526 2530 2531 2538 2546 2548 2529 2503 2484 2469 2452 2436 2438 2451 2467 2475 2482 2487 2501 2521 2539 2552 2554 2551 2553 2574 2600 2621 2628 2626 2625 2626 2625 2623 2622 2627 2633 2634 2630 2619 2610 2597 2583 2570 2555 2539 2531 2518 2492 2466 2452 2468 2490 2505 2517 2527 2530 2528 2523 2516 2511 2511 2530 2544 2551 2561 2568 2568 2568 2569 2567 2558 2546 2534 2523 2516 2507 2496 2483 2481 2469 2460 2454 2460 2465 2472 2463 2447 2446 2449 2442 2429 2432 2450 2460 2452 2442 2436 2429 2419 2419 2421 2413 2408 2399 2390 2380 2373 2367 2364 2360 2358 2361 2374 2389 2402 2424 2436 2436 2422 2413 2414 2422 2426 2425 2416 2410 2397 2385 2376 2367 2360 2355 2335 2322 2289 2261 2286 2317 2350 2386 2414 2449 2483 2495 2481 2460 2439 2426 2425 2414 2408 2413 2408 2406 2416
3020 3024 3031 3042 3048 3039 3025 3020 3023 3029 3033 3039 3049 3062 3084 3100 3104 3097 3089 3078 3066 3054 3040 3026 3007 2995 2985 2974 2961 2948 2936 2925 2917 2904 2897 2899 2904 2909 2914 2919 2921 2922 2921 2918 2909 2900 2888 2875 2862 2846 2828 2809 2793 2779 2767 2755 2748 2741 2730 2726 2725 2723 2717 2708 2700 2700 2704 2702 2692 2676 2660 2646 2638 2626 2619 2613 2607 2603 2610 2599 2562 2528 2500 2492 2499 2508 2503 2495 2501 2500 2479 2456 2447 2447 2444 2444 2457 2468 2481 2499 2511 2524 2538 2558 2579 2593 2598 2593 2585 2582 2592 2614 2622 2622 2621 2624 2625 2621 2619 2622 2628 2628 2626 2614 2602 2587 2572 2556 2536 2525 2513 2496 2475 2458 2465 2487 2503 2509 2520 2531 2542 2545 2540 2535 2540 2541 2550 2558 2560 2564 2568 2571 2569 2562 2557 2547 2537 2527 2519 2510 2501 2493 2487 2485 2477 2479 2489 2500 2508 2508 2487 2472 2479 2476 2470 2452 2442 2446 2467 2468 2458 2446 2433 2424 2415 2405 2400 2400 2394 2389 2384 2381 2377 2374 2368 2370 2382 2394 2402 2423 2455 2469 2460 2439 2426 2418 2414 2414 2410 2409 2408 2401 2390 2378 2370 2364 2357 2340 2314 2290 2268 2279 2300 2322 2358 2403 2453 2497 2529 2521 2498 2476 2466 2458 2447 2445 2447 2441 2435 2453
2999 3001 3004 3011 3015 3009 3004 3003 3005 3010 3017 3028 3044 3068 3093 3106 3101 3089 3076 3065 3053 3037 3024 3012 2999 2987 2973 2961 2941 2930 2919 2914 2899 2878 2873 2874 2883 2886 2896 2905 2910 2903 2899 2897 2885 2874 2860 2849 2833 2821 2809 2791 2777 2764 2756 2750 2739 2726 2715 2709 2704 2700 2699 2697 2690 2689 2695 2687 2675 2662 2648 2638 2635 2635 2632 2628 2633 2638 2634 2601 2558 2514 2482 2474 2475 2479 2470 2464 2464 2458 2456 2461 2470 2481 2485 2485 2493 2498 2511 2530 2545 2564 2583 2594 2604 2611 2614 2613 2611 2605 2602 2608 2613 2609 2609 2608 2607 2608 2610 2608 2616 2616 2611 2603 2588 2579 2565 2551 2545 2539 2525 2499 2472 2466 2498 2518 2522 2522 2526 2532 2545 2555 2552 2558 2570 2575 2577 2576 2569 2564 2563 2562 2562 2557 2551 2541 2530 2524 2514 2507 2506 2507 2504 2499 2493 2495 2514 2532 2545 2539 2510 2497 2506 2511 2501 2482 2464 2458 2474 2482 2472 2461 2446 2435 2424 2416 2411 2416 2417 2412 2403 2399 2393 2388 2382 2386 2393 2413 2424 2442 2463 2479 2465 2444 2429 2414 2410 2409 2406 2407 2409 2404 2385 2363 2346 2337 2336 2326 2305 2282 2275 2300 2325 2346 2370 2406 2464 2508 2525 2530 2528 2526 2513 2500 2492 2491 2479 2467 2472 2495
2987 2982 2983 2988 2989 2986 2985 2987 2990 2998 3005 3020 3044 3070 3090 3096 3089 3079 3069 3060 3047 3031 3022 3011 2996 2982 2968 2954 2931 2918 2909 2895 2878 2862 2855 2859 2866 2869 2881 2890 2894 2880 2868 2863 2853 2842 2833 2820 2809 2796 2788 2775 2764 2755 2748 2740 2724 2709 2698 2690 2685 2682 2678 2676 2678 2680 2678 2667 2659 2652 2648 2652 2658 2656 2655 2651 2653 2656 2629 2595 2542 2497 2484 2497 2495 2489 2483 2478 2476 2482 2499 2515 2533 2542 2540 2533 2528 2530 2536 2559 2585 2598 2617 2626 2626 2626 2625 2624 2620 2616 2618 2615 2613 2609 2605 2597 2590 2584 2586 2587 2593 2597 2595 2584 2578 2579 2579 2572 2559 2545 2531 2501 2467 2482 2510 2526 2532 2537 2542 2547 2548 2554 2565 2579 2595 2603 2599 2589 2576 2569 2563 2557 2552 2548 2544 2538 2531 2523 2519 2519 2523 2522 2516 2511 2505 2507 2528 2551 2566 2561 2535 2525 2534 2545 2531 2508 2489 2475 2481 2494 2491 2482 2466 2450 2441 2431 2424 2434 2444 2439 2427 2417 2411 2409 2400 2402 2410 2429 2447 2464 2475 2471 2459 2440 2426 2412 2408 2406 2404 2410 2416 2412 2394 2372 2354 2335 2323 2309 2293 2276 2291 2318 2333 2352 2383 2416 2455 2496 2523 2546 2560 2561 2555 2545 2541 2527 2504 2493 2501 2519
2977 2974 2972 2973 2972 2971 2971 2972 2981 2985 2996 3011 3031 3054 3072 3081 3080 3072 3063 3056 3046 3037 3030 3016 2997 2979 2961 2945 2927 2910 2899 2880 2863 2849 2838 2847 2857 2860 2867 2876 2878 2862 2842 2829 2819 2812 2807 2797 2788 2781 2767 2758 2748 2743 2739 2727 2711 2697 2687 2682 2679 2675 2671 2666 2664 2666 2662 2656 2658 2663 2673 2683 2687 2683 2667 2657 2651 2629 2596 2552 2511 2486 2507 2540 2549 2533 2527 2524 2524 2542 2559 2576 2590 2588 2583 2571 2566 2565 2572 2585 2607 2629 2641 2643 2643 2643 2638 2635 2632 2630 2628 2625 2620 2618 2616 2610 2602 2584 2566 2560 2561 2567 2571 2561 2554 2561 2572 2575 2566 2545 2529 2492 2467 2485 2506 2523 2531 2542 2555 2561 2563 2564 2572 2588 2606 2620 2614 2600 2585 2573 2566 2560 2557 2549 2548 2546 2543 2535 2530 2532 2532 2529 2526 2523 2518 2514 2526 2540 2557 2566 2559 2549 2558 2575 2566 2547 2526 2507 2510 2524 2525 2511 2486 2473 2461 2452 2441 2448 2468 2466 2449 2439 2434 2429 2425 2421 2424 2439 2460 2479 2488 2473 2450 2431 2418 2408 2404 2401 2404 2411 2422 2416 2396 2374 2353 2332 2318 2308 2294 2280 2290 2313 2334 2352 2374 2398 2439 2482 2524 2556 2573 2575 2578 2582 2576 2557 2535 2524 2534 2543
2966 2967 2967 2968 2968 2966 2967 2969 2976 2983 2993 3008 3024 3048 3067 3073 3075 3071 3066 3059 3050 3044 3034 3021 3004 2978 2958 2939 2921 2905 2889 2868 2848 2830 2824 2836 2848 2847 2847 2850 2844 2826 2809 2797 2792 2789 2785 2787 2782 2772 2758 2745 2737 2731 2726 2716 2704 2690 2682 2679 2673 2668 2666 2663 2659 2656 2657 2659 2670 2687 2703 2704 2696 2684 2660 2648 2635 2599 2556 2513 2496 2516 2549 2583 2594 2578 2562 2554 2559 2576 2588 2600 2610 2608 2603 2603 2604 2609 2616 2620 2623 2638 2650 2658 2659 2654 2650 2645 2643 2643 2636 2634 2634 2630 2627 2625 2613 2594 2570 2548 2538 2541 2541 2536 2528 2528 2535 2544 2548 2539 2522 2493 2475 2475 2502 2518 2530 2546 2557 2562 2571 2578 2585 2590 2602 2617 2619 2608 2597 2579 2567 2558 2556 2553 2551 2552 2549 2545 2539 2537 2535 2528 2523 2526 2518 2504 2504 2503 2518 2541 2555 2565 2575 2594 2599 2586 2566 2545 2544 2557 2558 2539 2512 2502 2495 2481 2466 2476 2495 2495 2476 2469 2467 2460 2451 2442 2441 2446 2456 2465 2466 2455 2440 2421 2407 2402 2396 2393 2401 2408 2415 2408 2390 2373 2359 2346 2339 2336 2317 2291 2286 2314 2335 2348 2362 2387 2426 2469 2512 2536 2553 2566 2574 2589 2594 2585 2569 2570 2570 2577
2947 2954 2960 2962 2966 2970 2971 2973 2976 2980 2989 3007 3026 3048 3058 3064 3065 3069 3065 3058 3051 3041 3022 3006 2986 2968 2948 2930 2916 2900 2880 2858 2836 2819 2809 2813 2819 2821 2820 2817 2806 2789 2776 2762 2758 2758 2761 2773 2775 2770 2754 2742 2732 2724 2715 2706 2692 2682 2676 2672 2669 2669 2667 2660 2659 2657 2662 2672 2685 2695 2699 2692 2673 2657 2638 2628 2611 2567 2520 2504 2527 2569 2610 2633 2634 2618 2601 2592 2589 2603 2612 2614 2618 2625 2630 2633 2637 2645 2655 2656 2656 2656 2659 2661 2662 2657 2653 2652 2654 2655 2649 2646 2643 2641 2635 2627 2611 2585 2564 2556 2566 2566 2563 2554 2546 2535 2523 2518 2515 2513 2499 2482 2475 2486 2509 2525 2531 2544 2555 2562 2570 2576 2588 2593 2599 2613 2620 2607 2591 2577 2563 2544 2538 2544 2549 2548 2547 2546 2548 2542 2516 2496 2499 2504 2494 2472 2464 2462 2478 2503 2524 2539 2561 2593 2611 2614 2596 2579 2573 2575 2565 2547 2530 2526 2519 2502 2486 2492 2505 2512 2504 2503 2499 2487 2471 2458 2449 2443 2442 2441 2440 2435 2423 2412 2401 2397 2392 2393 2402 2400 2399 2395 2386 2378 2376 2369 2360 2347 2330 2309 2288 2294 2312 2324 2339 2363 2398 2438 2469 2496 2520 2544 2557 2570 2581 2582 2592 2602 2609 2611
2912 2921 2931 2939 2947 2953 2961 2970 2974 2981 2992 3004 3020 3027 3028 3027 3031 3039 3041 3034 3022 3010 2998 2984 2970 2955 2937 2925 2914 2899 2883 2863 2844 2825 2809 2800 2793 2790 2786 2783 2778 2764 2748 2736 2726 2726 2728 2735 2750 2755 2747 2739 2730 2718 2712 2701 2689 2680 2677 2677 2675 2675 2672 2672 2672 2671 2670 2677 2686 2686 2670 2651 2633 2611 2600 2598 2580 2549 2507 2517 2562 2611 2650 2673 2665 2653 2640 2638 2628 2633 2638 2639 2642 2648 2650 2658 2664 2672 2679 2677 2673 2673 2671 2669 2665 2660 2659 2660 2661 2660 2654 2651 2649 2641 2632 2619 2596 2573 2567 2586 2599 2597 2591 2583 2579 2569 2556 2541 2522 2499 2485 2479 2493 2513 2526 2535 2542 2549 2557 2565 2573 2579 2582 2589 2596 2601 2600 2583 2569 2573 2559 2530 2511 2511 2518 2522 2522 2526 2537 2519 2489 2460 2456 2465 2458 2442 2425 2425 2436 2454 2477 2500 2536 2582 2615 2626 2615 2598 2588 2577 2559 2542 2527 2520 2518 2501 2487 2478 2489 2497 2500 2495 2485 2472 2463 2454 2443 2433 2430 2427 2422 2417 2411 2404 2398 2394 2389 2396 2396 2389 2379 2374 2376 2375 2372 2366 2355 2345 2335 2324 2302 2286 2296 2311 2325 2348 2383 2414 2430 2451 2475 2501 2524 2537 2552 2563 2586 2602 2611 2608
2877 2887 2894 2903 2910 2922 2935 2950 2967 2979 2990 2992 2990 2991 2989 2989 2997 3008 3005 2994 2981 2969 2959 2951 2939 2931 2924 2921 2913 2905 2894 2881 2868 2851 2830 2810 2798 2787 2779 2766 2753 2745 2733 2727 2718 2716 2713 2715 2724 2730 2729 2731 2723 2712 2705 2696 2687 2685 2685 2686 2688 2686 2684 2685 2686 2684 2678 2680 2677 2663 2627 2607 2581 2560 2550 2547 2535 2519 2527 2577 2616 2659 2687 2700 2700 2693 2676 2669 2662 2665 2663 2665 2672 2674 2679 2684 2690 2695 2696 2690 2685 2681 2679 2675 2669 2667 2663 2658 2653 2647 2642 2638 2634 2626 2617 2598 2580 2577 2597 2612 2617 2614 2614 2609 2598 2591 2578 2555 2528 2500 2484 2488 2508 2517 2529 2538 2543 2553 2567 2575 2582 2585 2588 2590 2590 2589 2579 2562 2544 2550 2546 2519 2489 2473 2474 2481 2482 2487 2497 2485 2457 2430 2419 2427 2422 2411 2397 2397 2410 2429 2455 2486 2521 2558 2602 2622 2628 2611 2592 2578 2564 2550 2531 2514 2505 2494 2482 2471 2467 2470 2472 2465 2457 2451 2445 2441 2434 2424 2418 2415 2412 2406 2400 2396 2395 2391 2383 2387 2383 2372 2365 2360 2358 2357 2354 2348 2339 2329 2320 2311 2301 2293 2300 2306 2316 2341 2369 2388 2399 2419 2439 2465 2488 2510 2527 2551 2572 2587 2594 2588
2840 2843 2854 2868 2881 2892 2905 2917 2936 2958 2968 2964 2960 2957 2955 2959 2967 2972 2966 2957 2943 2931 2926 2920 2913 2908 2907 2903 2902 2904 2895 2886 2872 2860 2843 2829 2821 2818 2803 2778 2757 2744 2733 2725 2721 2717 2714 2714 2712 2710 2711 2708 2706 2701 2695 2689 2688 2697 2701 2704 2707 2704 2701 2697 2697 2689 2678 2668 2653 2625 2589 2559 2543 2528 2521 2520 2522 2529 2556 2596 2641 2674 2688 2687 2691 2693 2691 2687 2685 2689 2690 2690 2690 2693 2700 2708 2713 2710 2703 2695 2689 2681 2676 2672 2670 2665 2657 2651 2643 2638 2631 2628 2621 2614 2600 2586 2585 2603 2618 2621 2624 2628 2628 2616 2604 2594 2578 2555 2521 2490 2487 2492 2501 2510 2524 2540 2552 2559 2572 2581 2587 2590 2590 2590 2590 2585 2576 2560 2535 2519 2511 2495 2473 2450 2440 2438 2436 2442 2453 2445 2427 2409 2391 2388 2384 2381 2374 2376 2398 2425 2446 2463 2493 2537 2581 2613 2620 2601 2570 2549 2538 2541 2534 2520 2509 2499 2489 2478 2469 2460 2454 2448 2444 2442 2442 2436 2432 2432 2429 2425 2428 2427 2425 2416 2402 2392 2375 2377 2381 2369 2356 2350 2347 2347 2342 2335 2331 2321 2308 2298 2295 2310 2326 2331 2325 2338 2362 2388 2413 2434 2453 2473 2493 2506 2515 2522 2539 2556 2571 2570
2802 2805 2816 2831 2849 2864 2879 2888 2904 2919 2927 2922 2917 2913 2917 2923 2935 2939 2931 2921 2909 2903 2900 2896 2890 2888 2886 2890 2890 2893 2889 2882 2872 2857 2846 2836 2831 2825 2809 2791 2772 2754 2741 2729 2720 2718 2717 2717 2717 2714 2709 2707 2703 2700 2692 2686 2695 2708 2719 2723 2724 2722 2722 2719 2707 2694 2674 2647 2616 2584 2551 2527 2527 2533 2542 2561 2566 2572 2589 2616 2644 2660 2670 2682 2695 2702 2702 2699 2700 2702 2703 2706 2702 2704 2711 2719 2718 2706 2694 2687 2682 2674 2670 2666 2661 2655 2650 2646 2639 2638 2635 2626 2616 2599 2589 2592 2605 2620 2627 2627 2626 2623 2620 2615 2604 2596 2585 2561 2536 2504 2491 2488 2494 2515 2536 2555 2568 2576 2582 2587 2586 2586 2585 2586 2583 2573 2563 2544 2531 2515 2511 2507 2487 2462 2445 2439 2423 2416 2414 2408 2399 2389 2385 2382 2368 2358 2357 2360 2380 2401 2413 2435 2475 2514 2555 2590 2604 2583 2549 2515 2496 2504 2514 2510 2512 2511 2501 2488 2477 2466 2459 2460 2458 2459 2459 2449 2445 2449 2442 2432 2431 2430 2430 2431 2421 2400 2374 2379 2385 2366 2351 2344 2339 2334 2335 2338 2336 2324 2305 2294 2304 2328 2345 2353 2360 2368 2387 2408 2424 2446 2467 2476 2476 2485 2498 2508 2524 2543 2554 2565
2777 2777 2784 2796 2809 2825 2840 2856 2869 2882 2888 2886 2881 2880 2881 2886 2892 2893 2888 2882 2873 2870 2867 2869 2869 2869 2867 2869 2871 2876 2878 2879 2871 2862 2848 2835 2825 2818 2810 2796 2778 2762 2745 2732 2725 2725 2725 2722 2721 2713 2711 2707 2705 2702 2697 2698 2711 2723 2732 2735 2735 2736 2736 2720 2700 2684 2656 2622 2586 2548 2531 2534 2560 2584 2600 2614 2621 2622 2632 2645 2651 2656 2665 2683 2693 2703 2712 2714 2713 2709 2709 2710 2706 2704 2705 2708 2713 2702 2686 2682 2677 2670 2665 2661 2659 2656 2653 2653 2647 2643 2636 2624 2612 2605 2614 2624 2627 2627 2628 2627 2625 2620 2616 2613 2612 2609 2600 2579 2561 2539 2519 2500 2495 2519 2545 2568 2583 2597 2604 2603 2596 2591 2588 2588 2583 2570 2560 2561 2561 2555 2550 2546 2518 2476 2462 2470 2459 2440 2425 2417 2418 2422 2422 2410 2394 2374 2353 2348 2358 2371 2388 2423 2457 2488 2522 2559 2576 2556 2526 2496 2464 2461 2472 2484 2507 2516 2503 2486 2476 2467 2465 2466 2464 2467 2460 2451 2441 2435 2430 2423 2419 2413 2406 2403 2398 2388 2371 2372 2383 2373 2355 2344 2341 2332 2321 2323 2322 2315 2303 2297 2304 2314 2329 2340 2351 2367 2382 2396 2408 2430 2448 2452 2457 2475 2497 2512 2525 2543 2563 2575
2758 2762 2765 2767 2775 2788 2804 2819 2831 2846 2859 2861 2863 2859 2856 2860 2858 2858 2859 2851 2846 2842 2841 2844 2846 2851 2853 2857 2860 2864 2863 2865 2862 2857 2840 2829 2822 2813 2806 2802 2788 2771 2752 2745 2738 2729 2719 2713 2713 2711 2707 2704 2703 2703 2702 2711 2720 2729 2737 2742 2738 2728 2714 2698 2685 2671 2633 2595 2560 2536 2540 2563 2605 2640 2656 2665 2669 2674 2675 2677 2680 2679 2676 2678 2685 2694 2707 2718 2713 2708 2708 2706 2703 2699 2691 2687 2688 2680 2675 2675 2674 2667 2662 2659 2660 2659 2658 2656 2655 2648 2636 2629 2629 2634 2638 2638 2634 2631 2633 2632 2626 2620 2621 2626 2628 2620 2606 2589 2571 2550 2521 2498 2506 2538 2558 2575 2588 2596 2603 2602 2598 2598 2596 2590 2585 2576 2581 2597 2603 2593 2574 2546 2515 2488 2478 2494 2493 2466 2446 2448 2462 2465 2450 2427 2403 2378 2360 2347 2338 2350 2379 2404 2432 2461 2496 2532 2552 2526 2491 2466 2439 2422 2426 2448 2475 2491 2475 2453 2444 2438 2445 2441 2436 2449 2450 2442 2435 2429 2422 2415 2411 2406 2395 2388 2381 2373 2361 2358 2365 2364 2356 2346 2334 2326 2325 2327 2317 2311 2307 2318 2323 2323 2331 2334 2340 2350 2365 2383 2406 2427 2434 2437 2454 2475 2489 2508 2530 2551 2562 2573
2757 2754 2755 2751 2754 2759 2774 2788 2801 2815 2824 2830 2833 2832 2828 2831 2832 2835 2837 2832 2830 2826 2823 2821 2821 2823 2831 2838 2846 2855 2856 2858 2858 2854 2844 2837 2829 2818 2807 2795 2784 2771 2753 2743 2737 2727 2718 2712 2708 2706 2701 2696 2690 2688 2687 2690 2695 2703 2712 2714 2710 2702 2685 2671 2663 2649 2623 2582 2548 2542 2563 2602 2644 2677 2691 2697 2702 2704 2705 2708 2709 2706 2702 2699 2700 2704 2706 2708 2707 2705 2706 2705 2702 2698 2690 2686 2682 2673 2672 2672 2674 2680 2681 2671 2665 2665 2664 2660 2656 2649 2643 2648 2648 2651 2649 2645 2638 2638 2636 2633 2631 2631 2636 2637 2631 2616 2596 2576 2557 2538 2513 2496 2512 2543 2563 2575 2581 2585 2593 2596 2597 2600 2597 2592 2588 2594 2603 2616 2625 2617 2601 2561 2523 2496 2502 2520 2517 2485 2470 2482 2502 2497 2466 2428 2396 2387 2382 2367 2342 2335 2350 2373 2407 2445 2479 2499 2516 2513 2488 2458 2432 2405 2394 2407 2429 2450 2450 2430 2404 2398 2410 2403 2406 2420 2434 2441 2439 2437 2432 2424 2418 2412 2405 2402 2399 2394 2379 2360 2349 2345 2340 2339 2336 2342 2349 2350 2338 2322 2311 2327 2341 2347 2357 2364 2365 2356 2360 2384 2403 2411 2420 2444 2468 2485 2503 2521 2538 2549 2549 2554
2757 2752 2750 2748 2745 2744 2749 2758 2772 2786 2794 2797 2796 2788 2783 2782 2784 2793 2800 2805 2809 2810 2807 2801 2798 2796 2800 2808 2812 2825 2838 2846 2845 2851 2849 2847 2838 2825 2812 2798 2779 2763 2747 2735 2725 2719 2714 2708 2708 2701 2686 2672 2662 2654 2648 2645 2648 2656 2660 2656 2653 2648 2639 2630 2620 2604 2589 2564 2546 2561 2598 2641 2672 2695 2705 2709 2712 2715 2718 2721 2724 2726 2724 2720 2722 2728 2727 2719 2712 2705 2699 2698 2696 2691 2686 2680 2676 2675 2678 2677 2679 2686 2690 2681 2672 2667 2666 2663 2660 2658 2658 2659 2658 2658 2652 2646 2642 2642 2640 2639 2641 2643 2645 2644 2628 2613 2593 2576 2564 2545 2529 2508 2501 2521 2543 2558 2571 2581 2592 2598 2601 2604 2600 2598 2600 2605 2614 2622 2625 2622 2612 2581 2543 2509 2517 2542 2541 2513 2505 2520 2530 2504 2465 2423 2411 2418 2411 2382 2347 2322 2335 2357 2390 2429 2456 2450 2453 2477 2468 2448 2431 2406 2375 2369 2385 2406 2411 2395 2380 2367 2374 2376 2386 2408 2433 2452 2460 2457 2444 2435 2426 2420 2410 2403 2399 2394 2382 2368 2360 2360 2367 2367 2369 2374 2375 2363 2342 2323 2324 2344 2355 2366 2374 2382 2388 2383 2375 2381 2399 2414 2438 2460 2479 2495 2517 2528 2528 2531 2528 2533
2771 2762 2755 2750 2746 2743 2744 2745 2747 2758 2766 2760 2748 2740 2734 2725 2727 2738 2750 2762 2770 2777 2779 2779 2775 2773 2772 2776 2776 2777 2787 2798 2808 2814 2826 2827 2829 2823 2815 2800 2780 2758 2740 2729 2722 2717 2714 2708 2700 2684 2666 2646 2632 2622 2618 2615 2613 2619 2615 2607 2603 2596 2589 2581 2572 2567 2557 2551 2557 2578 2623 2666 2685 2693 2696 2699 2698 2702 2711 2718 2723 2727 2728 2726 2726 2727 2719 2712 2702 2695 2692 2687 2684 2682 2680 2670 2665 2668 2677 2679 2680 2680 2681 2682 2678 2674 2673 2671 2670 2671 2674 2669 2665 2661 2655 2652 2650 2650 2648 2647 2648 2652 2647 2636 2623 2609 2595 2583 2571 2558 2537 2513 2513 2529 2547 2563 2576 2588 2593 2601 2611 2613 2606 2606 2607 2610 2618 2626 2629 2618 2599 2574 2543 2518 2535 2562 2567 2548 2546 2547 2533 2503 2463 2442 2449 2448 2428 2387 2356 2320 2313 2332 2356 2387 2412 2399 2402 2429 2427 2409 2401 2398 2373 2352 2353 2366 2365 2353 2343 2341 2352 2375 2402 2426 2448 2466 2472 2463 2452 2447 2442 2434 2420 2410 2404 2394 2382 2381 2394 2408 2407 2401 2400 2396 2384 2368 2348 2326 2331 2353 2370 2383 2390 2395 2399 2407 2411 2421 2434 2452 2469 2481 2491 2499 2508 2506 2507 2502 2504 2505
2805 2790 2775 2759 2750 2745 2740 2738 2735 2735 2738 2734 2725 2719 2715 2711 2711 2712 2714 2713 2720 2729 2738 2745 2747 2744 2742 2741 2732 2719 2721 2726 2742 2762 2786 2796 2801 2798 2794 2783 2773 2760 2751 2739 2735 2724 2703 2686 2668 2651 2634 2624 2621 2613 2610 2608 2605 2602 2597 2592 2586 2580 2574 2568 2563 2561 2558 2560 2572 2607 2642 2663 2672 2676 2677 2681 2687 2694 2703 2710 2713 2717 2721 2720 2713 2711 2706 2701 2697 2688 2678 2675 2681 2682 2674 2661 2659 2667 2672 2673 2677 2677 2675 2678 2680 2680 2679 2679 2680 2679 2678 2673 2672 2667 2662 2658 2656 2656 2655 2657 2658 2656 2648 2634 2620 2603 2592 2580 2572 2564 2544 2516 2517 2539 2560 2574 2588 2601 2604 2605 2608 2611 2607 2607 2610 2613 2621 2629 2624 2616 2599 2573 2546 2529 2553 2584 2589 2578 2563 2546 2525 2501 2476 2471 2485 2478 2444 2411 2375 2342 2305 2305 2323 2350 2373 2363 2360 2396 2401 2375 2362 2371 2364 2349 2330 2327 2325 2322 2332 2350 2365 2377 2397 2420 2444 2469 2477 2470 2472 2473 2464 2447 2435 2431 2424 2409 2397 2401 2415 2436 2443 2431 2415 2400 2381 2360 2342 2331 2351 2367 2385 2398 2401 2404 2405 2412 2423 2436 2453 2470 2476 2481 2482 2484 2485 2482 2484 2488 2490 2488
2839 2821 2804 2788 2775 2764 2753 2745 2740 2733 2731 2728 2726 2722 2716 2709 2710 2707 2703 2701 2697 2698 2700 2702 2703 2698 2701 2695 2686 2681 2678 2679 2684 2696 2720 2743 2753 2753 2749 2747 2747 2747 2744 2736 2719 2696 2669 2646 2631 2621 2618 2618 2616 2614 2615 2611 2605 2600 2595 2594 2585 2588 2580 2577 2569 2568 2578 2588 2598 2615 2632 2642 2648 2654 2660 2670 2680 2685 2691 2696 2699 2703 2708 2709 2705 2707 2708 2705 2699 2693 2680 2666 2666 2669 2662 2654 2659 2669 2673 2675 2677 2675 2673 2678 2684 2686 2683 2683 2681 2680 2681 2678 2677 2675 2671 2669 2664 2663 2661 2661 2660 2659 2649 2635 2621 2607 2597 2585 2572 2561 2538 2516 2519 2556 2573 2588 2599 2607 2608 2603 2601 2602 2602 2604 2606 2610 2615 2615 2612 2612 2598 2575 2551 2547 2570 2591 2595 2579 2554 2528 2512 2498 2495 2499 2505 2493 2469 2439 2405 2372 2336 2304 2291 2309 2324 2321 2332 2357 2361 2341 2332 2339 2339 2333 2321 2303 2302 2316 2340 2368 2392 2400 2408 2425 2454 2478 2483 2476 2479 2476 2465 2458 2459 2453 2440 2421 2405 2415 2431 2436 2441 2436 2416 2395 2374 2356 2339 2343 2366 2376 2381 2386 2392 2397 2405 2416 2427 2440 2455 2461 2461 2456 2449 2450 2459 2469 2476 2486 2491 2493
2882 2858 2839 2829 2816 2802 2790 2779 2769 2758 2756 2752 2748 2741 2733 2729 2721 2718 2710 2709 2701 2695 2693 2691 2688 2680 2676 2675 2669 2665 2661 2661 2660 2659 2665 2679 2688 2693 2697 2695 2694 2689 2682 2675 2663 2645 2632 2624 2620 2616 2618 2618 2621 2632 2641 2630 2618 2608 2609 2607 2599 2601 2599 2598 2600 2607 2619 2627 2632 2637 2640 2645 2646 2650 2657 2667 2674 2677 2680 2682 2686 2692 2700 2706 2708 2706 2705 2698 2689 2684 2677 2670 2658 2651 2645 2649 2666 2672 2674 2672 2671 2673 2675 2676 2677 2678 2678 2677 2679 2684 2688 2688 2683 2682 2679 2677 2673 2667 2661 2655 2654 2654 2650 2640 2627 2614 2604 2584 2565 2538 2522 2526 2544 2573 2591 2604 2613 2610 2601 2597 2593 2598 2601 2602 2604 2605 2605 2605 2608 2609 2600 2577 2560 2565 2577 2590 2588 2574 2556 2550 2537 2518 2498 2483 2468 2463 2458 2435 2408 2385 2354 2329 2307 2290 2284 2286 2297 2309 2315 2313 2305 2309 2318 2306 2297 2288 2294 2318 2346 2371 2403 2427 2440 2445 2459 2478 2482 2471 2466 2460 2452 2448 2451 2449 2439 2423 2420 2418 2420 2413 2416 2417 2404 2387 2367 2349 2335 2346 2362 2365 2371 2380 2390 2401 2414 2422 2430 2434 2434 2434 2436 2434 2436 2451 2468 2476 2487 2495 2497 2498
2896 2876 2875 2872 2864 2855 2840 2830 2821 2807 2799 2794 2789 2791 2785 2770 2761 2756 2746 2737 2727 2719 2709 2702 2702 2695 2692 2692 2688 2678 2672 2662 2654 2655 2651 2648 2649 2646 2648 2648 2648 2644 2639 2635 2631 2627 2625 2626 2623 2628 2636 2645 2659 2675 2680 2672 2648 2632 2622 2628 2634 2641 2643 2646 2649 2657 2672 2677 2677 2674 2674 2674 2673 2671 2671 2672 2672 2672 2671 2672 2673 2679 2690 2699 2699 2695 2690 2677 2671 2669 2667 2665 2658 2645 2637 2653 2664 2668 2674 2676 2675 2672 2668 2671 2671 2667 2664 2662 2668 2677 2681 2683 2683 2680 2678 2676 2671 2665 2660 2654 2652 2650 2646 2640 2629 2616 2600 2576 2550 2526 2530 2543 2557 2574 2591 2601 2603 2597 2591 2588 2586 2597 2604 2605 2605 2603 2604 2607 2608 2603 2597 2584 2578 2588 2592 2593 2593 2591 2588 2578 2548 2513 2476 2449 2426 2417 2419 2402 2378 2355 2338 2319 2305 2290 2283 2268 2264 2271 2275 2278 2281 2295 2303 2288 2274 2280 2298 2321 2344 2377 2415 2448 2473 2484 2486 2489 2484 2476 2464 2453 2446 2435 2429 2424 2417 2411 2409 2402 2395 2392 2392 2386 2374 2364 2357 2351 2351 2348 2350 2367 2378 2390 2401 2411 2419 2420 2421 2417 2413 2417 2426 2439 2453 2462 2474 2479 2488 2496 2497 2488
2901 2898 2897 2893 2893 2891 2886 2878 2869 2858 2848 2846 2842 2836 2827 2818 2811 2803 2790 2781 2773 2765 2757 2751 2740 2736 2732 2726 2715 2705 2692 2679 2665 2656 2650 2648 2645 2638 2640 2636 2634 2633 2631 2631 2631 2631 2632 2642 2653 2672 2690 2701 2707 2708 2700 2688 2667 2656 2658 2670 2680 2686 2691 2696 2698 2698 2703 2704 2706 2704 2697 2689 2682 2679 2677 2675 2672 2671 2664 2660 2657 2660 2667 2669 2668 2664 2658 2653 2650 2646 2646 2648 2641 2629 2635 2645 2652 2660 2674 2684 2687 2687 2683 2675 2672 2668 2656 2647 2654 2667 2672 2677 2679 2676 2673 2668 2666 2664 2658 2657 2654 2649 2644 2641 2629 2610 2594 2575 2549 2525 2523 2526 2538 2562 2575 2579 2583 2580 2578 2582 2592 2599 2602 2602 2601 2601 2604 2610 2608 2606 2603 2596 2593 2600 2604 2607 2602 2584 2576 2573 2555 2519 2489 2456 2424 2396 2385 2371 2349 2336 2329 2321 2318 2303 2291 2285 2270 2258 2251 2252 2262 2274 2276 2263 2263 2278 2303 2329 2350 2379 2411 2450 2485 2510 2511 2502 2494 2486 2472 2462 2456 2448 2440 2428 2418 2410 2407 2411 2403 2387 2375 2374 2374 2373 2375 2370 2370 2368 2355 2359 2370 2382 2389 2394 2398 2397 2396 2405 2420 2440 2450 2464 2474 2483 2491 2495 2497 2491 2474 2460
2915 2912 2912 2910 2914 2918 2915 2912 2908 2903 2892 2884 2875 2868 2861 2856 2847 2834 2824 2817 2813 2809 2803 2793 2784 2775 2767 2757 2740 2725 2709 2693 2678 2664 2655 2649 2648 2644 2642 2638 2636 2638 2640 2640 2643 2653 2668 2696 2720 2737 2737 2731 2723 2711 2698 2682 2676 2685 2693 2703 2708 2711 2712 2711 2710 2711 2713 2711 2708 2704 2699 2693 2686 2680 2677 2672 2667 2667 2665 2663 2659 2658 2655 2648 2640 2638 2633 2630 2628 2624 2625 2625 2622 2619 2624 2631 2637 2645 2663 2676 2680 2677 2677 2677 2674 2670 2659 2643 2642 2653 2658 2668 2670 2665 2663 2660 2659 2657 2654 2651 2648 2647 2644 2639 2628 2614 2602 2591 2574 2555 2544 2534 2531 2545 2555 2560 2567 2569 2575 2586 2601 2603 2597 2595 2596 2600 2607 2612 2610 2610 2607 2605 2600 2601 2605 2601 2581 2551 2532 2530 2532 2518 2487 2469 2438 2402 2370 2365 2368 2366 2360 2346 2330 2315 2315 2322 2316 2290 2266 2247 2240 2250 2254 2247 2257 2277 2304 2335 2365 2383 2404 2442 2480 2514 2523 2516 2509 2498 2486 2472 2466 2466 2456 2448 2446 2431 2425 2427 2417 2401 2385 2390 2402 2393 2383 2382 2388 2386 2374 2366 2368 2371 2377 2384 2390 2404 2410 2416 2436 2446 2454 2466 2476 2487 2500 2504 2497 2483 2460 2436
2929 2925 2926 2926 2927 2928 2928 2921 2914 2909 2902 2895 2892 2887 2884 2881 2877 2867 2858 2850 2847 2839 2832 2820 2811 2803 2796 2784 2771 2754 2735 2718 2701 2686 2678 2668 2662 2656 2649 2647 2651 2662 2672 2679 2689 2707 2732 2747 2751 2748 2740 2735 2723 2709 2698 2697 2702 2707 2712 2722 2728 2729 2727 2723 2719 2716 2712 2709 2708 2704 2700 2695 2692 2687 2681 2678 2676 2673 2672 2668 2666 2667 2664 2660 2647 2636 2633 2634 2632 2626 2620 2613 2612 2611 2610 2611 2612 2618 2634 2647 2654 2657 2658 2662 2663 2664 2659 2648 2634 2632 2638 2648 2654 2653 2651 2650 2653 2655 2651 2643 2639 2640 2639 2637 2630 2622 2614 2604 2589 2577 2561 2539 2539 2557 2572 2577 2582 2586 2590 2597 2604 2606 2605 2605 2604 2610 2616 2620 2617 2616 2609 2608 2608 2607 2605 2596 2579 2547 2511 2492 2486 2481 2462 2437 2416 2403 2391 2402 2417 2410 2392 2369 2354 2347 2340 2331 2324 2312 2289 2266 2237 2228 2236 2244 2260 2281 2305 2330 2347 2360 2386 2425 2466 2509 2537 2537 2524 2512 2505 2497 2489 2480 2470 2464 2454 2433 2422 2413 2404 2397 2402 2413 2412 2404 2398 2402 2404 2400 2389 2395 2402 2403 2410 2414 2423 2449 2451 2440 2445 2460 2468 2478 2485 2489 2498 2500 2494 2481 2461 2446
2945 2942 2940 2940 2938 2932 2929 2923 2914 2909 2905 2897 2893 2894 2893 2892 2890 2882 2870 2861 2856 2851 2849 2844 2832 2822 2812 2803 2790 2775 2762 2751 2739 2728 2718 2706 2693 2679 2669 2670 2681 2691 2698 2701 2715 2732 2748 2755 2749 2740 2732 2726 2721 2720 2720 2719 2720 2724 2727 2731 2731 2732 2729 2723 2718 2712 2707 2705 2703 2699 2696 2690 2688 2684 2679 2676 2674 2672 2670 2667 2664 2663 2659 2651 2644 2635 2635 2640 2640 2637 2631 2626 2625 2619 2618 2615 2613 2608 2609 2615 2623 2633 2634 2636 2641 2646 2643 2639 2634 2627 2619 2620 2629 2631 2635 2642 2648 2649 2645 2637 2632 2632 2631 2632 2628 2621 2614 2601 2586 2568 2549 2535 2553 2580 2591 2592 2594 2594 2596 2599 2602 2603 2608 2612 2614 2614 2618 2620 2615 2615 2612 2613 2616 2620 2620 2608 2591 2563 2527 2491 2464 2451 2443 2443 2445 2442 2441 2452 2460 2450 2427 2409 2392 2372 2346 2321 2303 2294 2287 2274 2248 2229 2223 2245 2268 2296 2302 2303 2318 2340 2373 2410 2456 2492 2518 2536 2537 2534 2523 2509 2493 2477 2466 2449 2436 2416 2404 2398 2395 2400 2401 2403 2405 2403 2404 2411 2416 2415 2405 2415 2427 2442 2453 2452 2462 2485 2488 2479 2479 2491 2487 2480 2475 2465 2467 2469 2474 2478 2471 2461
2947 2945 2944 2944 2943 2936 2931 2929 2923 2917 2911 2905 2899 2901 2897 2893 2893 2890 2881 2871 2867 2861 2857 2854 2849 2839 2826 2821 2816 2801 2783 2773 2762 2754 2742 2728 2721 2708 2699 2702 2705 2709 2710 2713 2725 2736 2749 2753 2746 2734 2730 2729 2731 2737 2740 2737 2733 2732 2733 2734 2732 2730 2728 2724 2716 2711 2707 2704 2698 2694 2692 2687 2684 2677 2675 2671 2666 2665 2660 2652 2648 2647 2647 2645 2644 2638 2640 2639 2635 2632 2627 2623 2621 2616 2616 2615 2613 2613 2609 2603 2601 2604 2608 2610 2613 2619 2622 2625 2627 2625 2620 2607 2603 2611 2627 2637 2643 2644 2639 2634 2628 2621 2619 2615 2613 2609 2602 2592 2579 2561 2544 2544 2568 2577 2582 2586 2589 2595 2601 2603 2605 2610 2613 2615 2618 2620 2622 2618 2616 2615 2613 2612 2613 2617 2620 2610 2592 2564 2528 2491 2469 2470 2482 2492 2499 2501 2496 2508 2512 2491 2463 2430 2392 2362 2340 2325 2310 2297 2282 2264 2249 2232 2219 2231 2257 2274 2271 2277 2292 2316 2355 2399 2431 2450 2474 2496 2517 2509 2501 2498 2490 2476 2465 2452 2428 2393 2367 2359 2363 2381 2381 2373 2381 2386 2394 2411 2426 2433 2429 2427 2437 2456 2479 2489 2498 2508 2510 2499 2490 2484 2468 2451 2437 2419 2410 2418 2424 2440 2453 2451
2943 2945 2948 2949 2946 2943 2942 2935 2931 2925 2917 2911 2908 2905 2900 2898 2898 2894 2886 2878 2872 2865 2864 2861 2855 2849 2838 2831 2828 2820 2803 2791 2783 2772 2761 2752 2744 2734 2726 2722 2724 2725 2725 2733 2746 2750 2755 2750 2740 2733 2736 2738 2741 2745 2746 2748 2751 2753 2749 2742 2736 2729 2723 2720 2715 2710 2706 2701 2694 2687 2683 2681 2680 2675 2669 2664 2660 2658 2657 2655 2654 2656 2656 2656 2652 2648 2646 2643 2635 2630 2624 2619 2611 2608 2607 2605 2607 2611 2612 2604 2595 2587 2587 2589 2591 2599 2610 2620 2624 2621 2618 2610 2596 2598 2611 2624 2631 2631 2628 2627 2622 2615 2608 2603 2599 2593 2584 2570 2553 2544 2543 2543 2558 2566 2573 2584 2596 2601 2605 2606 2606 2610 2615 2616 2617 2622 2625 2621 2621 2618 2613 2609 2609 2606 2608 2591 2573 2547 2518 2502 2500 2504 2527 2552 2561 2555 2541 2552 2558 2527 2491 2446 2411 2387 2374 2363 2347 2323 2298 2277 2261 2242 2215 2217 2233 2243 2252 2266 2278 2302 2342 2383 2398 2400 2428 2455 2478 2467 2457 2463 2471 2465 2464 2462 2433 2387 2344 2318 2332 2346 2346 2337 2341 2355 2384 2415 2437 2453 2460 2459 2461 2473 2490 2512 2521 2511 2503 2482 2447 2433 2427 2402 2393 2382 2368 2364 2378 2402 2426 2430
2939 2945 2948 2946 2944 2942 2938 2934 2928 2924 2921 2920 2917 2911 2908 2906 2900 2893 2884 2878 2874 2869 2865 2859 2852 2848 2842 2836 2831 2826 2821 2809 2794 2781 2773 2766 2762 2757 2747 2742 2746 2748 2751 2771 2776 2767 2759 2752 2745 2743 2747 2751 2750 2748 2744 2744 2747 2748 2747 2742 2734 2727 2722 2719 2715 2711 2709 2703 2697 2696 2694 2695 2692 2691 2688 2684 2681 2674 2672 2673 2675 2673 2672 2669 2661 2653 2648 2644 2636 2631 2627 2617 2609 2605 2601 2598 2597 2597 2601 2596 2587 2585 2583 2581 2579 2583 2591 2607 2619 2619 2618 2611 2602 2587 2589 2598 2606 2609 2612 2613 2610 2603 2598 2593 2587 2576 2560 2546 2546 2549 2557 2555 2560 2565 2571 2578 2587 2595 2599 2603 2606 2610 2615 2619 2621 2623 2626 2623 2624 2622 2622 2622 2618 2618 2608 2583 2568 2554 2546 2543 2546 2552 2564 2580 2604 2599 2579 2571 2577 2555 2526 2491 2459 2433 2410 2388 2358 2329 2296 2274 2255 2238 2213 2209 2221 2229 2241 2253 2267 2295 2326 2351 2361 2360 2391 2423 2455 2447 2423 2419 2423 2416 2427 2424 2408 2376 2337 2300 2291 2301 2302 2304 2314 2339 2369 2401 2429 2457 2481 2497 2499 2501 2513 2522 2502 2460 2455 2440 2406 2382 2383 2370 2347 2346 2337 2336 2368 2395 2416 2424
2939 2940 2940 2940 2938 2936 2937 2934 2930 2924 2921 2920 2915 2910 2907 2900 2893 2884 2877 2872 2868 2866 2861 2853 2846 2847 2843 2838 2833 2828 2823 2814 2800 2783 2772 2768 2766 2763 2757 2758 2762 2767 2775 2783 2785 2779 2768 2761 2754 2755 2759 2759 2758 2758 2752 2747 2742 2738 2733 2730 2724 2721 2717 2714 2710 2708 2705 2702 2704 2705 2706 2708 2711 2713 2713 2707 2700 2693 2689 2690 2692 2691 2682 2671 2658 2651 2645 2640 2633 2629 2622 2612 2608 2603 2597 2596 2594 2591 2591 2590 2590 2593 2584 2583 2582 2578 2575 2583 2596 2602 2605 2598 2591 2586 2581 2577 2582 2594 2599 2601 2601 2597 2588 2581 2573 2557 2547 2545 2552 2565 2573 2575 2579 2579 2580 2579 2586 2592 2595 2600 2604 2610 2615 2620 2622 2624 2620 2615 2619 2628 2637 2646 2648 2638 2625 2610 2602 2592 2593 2595 2587 2591 2605 2618 2627 2622 2597 2572 2562 2545 2525 2507 2474 2435 2401 2373 2353 2337 2309 2279 2256 2233 2219 2202 2208 2214 2226 2235 2250 2269 2292 2303 2319 2340 2381 2412 2448 2452 2426 2385 2377 2372 2371 2369 2360 2344 2319 2286 2263 2270 2280 2298 2320 2337 2360 2390 2422 2449 2481 2502 2516 2531 2536 2519 2478 2433 2405 2394 2378 2352 2337 2332 2313 2310 2320 2338 2372 2402 2434 2428
2936 2933 2934 2932 2927 2925 2928 2929 2926 2920 2917 2916 2913 2910 2903 2896 2888 2876 2870 2863 2862 2864 2861 2854 2849 2845 2838 2830 2825 2821 2814 2810 2803 2787 2777 2777 2778 2771 2773 2774 2775 2780 2784 2785 2785 2785 2774 2766 2761 2763 2763 2759 2758 2759 2758 2754 2747 2739 2733 2729 2725 2719 2714 2708 2703 2698 2696 2697 2697 2696 2698 2702 2703 2701 2703 2699 2695 2690 2688 2691 2691 2683 2669 2662 2656 2650 2645 2644 2640 2634 2627 2618 2608 2601 2597 2597 2599 2599 2610 2618 2614 2606 2598 2592 2589 2585 2579 2576 2575 2576 2575 2574 2570 2569 2572 2569 2566 2571 2573 2578 2586 2587 2579 2566 2554 2547 2549 2562 2573 2590 2600 2599 2596 2592 2589 2591 2592 2597 2600 2603 2608 2615 2618 2617 2618 2618 2608 2600 2611 2627 2641 2650 2653 2645 2637 2631 2623 2612 2613 2621 2627 2633 2634 2637 2632 2630 2605 2564 2529 2497 2479 2465 2437 2403 2364 2333 2319 2316 2301 2283 2269 2248 2227 2204 2196 2195 2204 2218 2233 2249 2263 2281 2305 2335 2362 2383 2400 2410 2398 2352 2339 2341 2332 2320 2312 2299 2287 2259 2251 2268 2293 2322 2352 2374 2395 2418 2439 2454 2452 2450 2474 2508 2531 2502 2470 2429 2388 2358 2342 2320 2305 2296 2287 2312 2339 2367 2396 2421 2427 2405
2930 2925 2923 2927 2924 2918 2919 2913 2911 2908 2906 2907 2905 2902 2898 2891 2881 2874 2868 2858 2856 2855 2852 2851 2849 2847 2838 2826 2823 2821 2817 2809 2800 2790 2789 2793 2794 2789 2785 2784 2787 2787 2790 2791 2786 2782 2772 2765 2762 2758 2756 2751 2748 2747 2742 2741 2736 2732 2730 2727 2724 2722 2717 2711 2709 2705 2700 2694 2690 2683 2679 2677 2679 2674 2671 2668 2665 2662 2661 2663 2665 2660 2650 2646 2642 2641 2642 2645 2643 2637 2625 2612 2603 2601 2606 2616 2620 2620 2629 2635 2632 2622 2612 2605 2598 2594 2588 2583 2581 2582 2577 2577 2572 2568 2564 2563 2561 2561 2558 2556 2559 2562 2557 2552 2548 2554 2574 2588 2592 2602 2612 2612 2611 2609 2607 2605 2605 2603 2603 2604 2605 2606 2604 2606 2610 2609 2598 2586 2595 2612 2621 2631 2636 2638 2638 2631 2616 2602 2606 2623 2635 2640 2619 2601 2593 2597 2595 2559 2508 2472 2439 2413 2390 2364 2337 2330 2320 2302 2285 2270 2258 2245 2230 2214 2206 2192 2188 2202 2219 2234 2247 2264 2284 2298 2315 2333 2344 2357 2365 2322 2312 2331 2315 2287 2273 2263 2249 2237 2246 2277 2306 2337 2361 2374 2388 2402 2417 2423 2404 2406 2440 2483 2505 2476 2438 2403 2378 2351 2334 2312 2288 2275 2286 2322 2357 2390 2410 2425 2410 2373
2927 2920 2912 2911 2918 2915 2915 2904 2894 2895 2892 2890 2886 2882 2880 2876 2873 2870 2866 2860 2861 2861 2858 2856 2855 2850 2840 2831 2826 2819 2812 2803 2796 2798 2798 2801 2799 2802 2798 2795 2795 2795 2792 2788 2784 2777 2774 2772 2764 2761 2761 2760 2761 2760 2754 2748 2744 2742 2741 2736 2734 2732 2728 2723 2718 2714 2711 2709 2709 2704 2696 2685 2679 2673 2669 2666 2662 2652 2640 2638 2636 2637 2634 2631 2627 2628 2631 2634 2633 2629 2618 2605 2604 2609 2621 2632 2637 2640 2642 2644 2642 2632 2624 2619 2612 2606 2601 2599 2599 2611 2611 2601 2594 2585 2575 2568 2563 2563 2561 2554 2554 2552 2553 2560 2572 2585 2599 2605 2602 2604 2610 2615 2618 2618 2618 2615 2610 2607 2606 2601 2594 2592 2594 2597 2597 2593 2582 2573 2578 2590 2603 2622 2627 2625 2626 2626 2610 2591 2595 2616 2624 2634 2607 2564 2543 2544 2551 2536 2512 2490 2456 2419 2391 2381 2364 2355 2331 2308 2286 2261 2246 2237 2227 2219 2209 2196 2185 2188 2206 2217 2227 2239 2254 2265 2279 2293 2302 2325 2336 2295 2286 2303 2299 2276 2257 2242 2229 2226 2254 2295 2322 2341 2352 2350 2362 2379 2390 2389 2371 2379 2418 2463 2479 2455 2408 2373 2356 2332 2305 2284 2268 2262 2285 2321 2352 2372 2388 2400 2396 2370
2921 2911 2904 2905 2909 2907 2906 2900 2889 2884 2882 2884 2881 2871 2867 2864 2863 2865 2864 2863 2864 2862 2861 2859 2850 2836 2824 2817 2810 2804 2797 2792 2791 2792 2794 2796 2793 2794 2794 2794 2794 2795 2794 2791 2786 2782 2775 2771 2769 2769 2764 2758 2758 2757 2753 2748 2746 2743 2742 2741 2739 2735 2731 2729 2725 2722 2724 2726 2726 2719 2711 2705 2703 2699 2695 2689 2680 2668 2658 2648 2640 2632 2627 2629 2626 2625 2630 2633 2628 2619 2610 2608 2616 2627 2632 2637 2643 2648 2648 2649 2647 2639 2631 2625 2620 2614 2613 2610 2609 2617 2623 2613 2601 2591 2583 2578 2572 2573 2574 2567 2570 2578 2582 2591 2601 2609 2619 2621 2617 2614 2616 2619 2617 2614 2612 2610 2609 2610 2608 2607 2600 2581 2579 2589 2593 2586 2569 2557 2563 2575 2594 2609 2609 2608 2616 2610 2590 2577 2582 2595 2612 2630 2604 2546 2511 2498 2497 2488 2478 2462 2454 2447 2444 2433 2409 2365 2333 2305 2282 2257 2238 2228 2223 2217 2211 2196 2180 2178 2196 2201 2212 2232 2240 2242 2248 2259 2267 2290 2296 2268 2250 2260 2272 2263 2242 2225 2208 2233 2272 2301 2311 2314 2324 2318 2337 2353 2354 2353 2341 2353 2396 2442 2471 2459 2402 2367 2327 2306 2289 2267 2249 2253 2282 2312 2322 2331 2352 2374 2381 2355
2914 2906 2901 2898 2895 2893 2893 2894 2886 2880 2876 2877 2875 2867 2858 2854 2850 2852 2854 2855 2857 2861 2858 2851 2839 2827 2813 2803 2796 2792 2791 2791 2791 2791 2791 2792 2794 2797 2807 2814 2822 2822 2820 2814 2809 2797 2788 2781 2775 2771 2765 2762 2760 2758 2754 2751 2745 2742 2740 2739 2734 2730 2725 2721 2717 2714 2717 2724 2729 2724 2713 2706 2699 2694 2689 2683 2677 2668 2656 2648 2638 2631 2623 2621 2619 2616 2617 2617 2611 2607 2612 2621 2634 2642 2643 2646 2654 2660 2662 2658 2653 2647 2637 2631 2625 2621 2618 2616 2612 2614 2621 2615 2604 2595 2587 2583 2585 2586 2582 2578 2590 2605 2617 2626 2634 2631 2632 2630 2627 2623 2617 2613 2611 2606 2603 2601 2602 2602 2600 2603 2599 2582 2564 2573 2578 2573 2557 2542 2546 2558 2578 2585 2584 2596 2597 2582 2569 2562 2558 2581 2613 2631 2606 2554 2513 2476 2460 2445 2425 2406 2400 2401 2414 2421 2407 2365 2332 2298 2274 2251 2235 2225 2216 2205 2199 2190 2175 2173 2186 2192 2206 2226 2225 2219 2230 2238 2238 2250 2256 2241 2228 2227 2235 2224 2209 2195 2206 2241 2266 2270 2268 2280 2290 2287 2300 2308 2305 2309 2314 2346 2377 2410 2448 2446 2398 2363 2318 2286 2263 2245 2231 2247 2270 2282 2276 2290 2314 2344 2359 2343
2906 2901 2897 2893 2889 2889 2893 2897 2887 2880 2870 2869 2869 2860 2851 2847 2844 2842 2843 2845 2851 2852 2848 2840 2831 2819 2810 2798 2791 2791 2791 2791 2791 2791 2791 2791 2794 2807 2818 2820 2824 2826 2824 2818 2808 2800 2792 2787 2778 2773 2764 2759 2758 2756 2751 2746 2740 2734 2731 2726 2721 2716 2713 2708 2702 2703 2702 2702 2705 2705 2701 2694 2689 2679 2675 2672 2666 2655 2645 2635 2627 2627 2620 2617 2616 2616 2617 2615 2612 2615 2623 2637 2651 2659 2657 2658 2663 2665 2665 2663 2662 2661 2653 2647 2637 2633 2629 2625 2623 2620 2619 2613 2606 2596 2593 2599 2603 2601 2594 2593 2602 2612 2627 2642 2651 2651 2646 2639 2632 2626 2618 2609 2603 2598 2594 2592 2589 2589 2583 2583 2580 2566 2552 2552 2557 2556 2550 2535 2528 2544 2558 2562 2572 2589 2584 2567 2551 2541 2544 2571 2599 2613 2603 2559 2526 2492 2466 2438 2415 2391 2368 2348 2357 2373 2383 2367 2337 2304 2284 2261 2242 2230 2219 2214 2206 2190 2177 2165 2169 2179 2197 2208 2199 2195 2210 2216 2209 2211 2215 2212 2205 2201 2211 2199 2176 2186 2217 2243 2239 2231 2239 2258 2264 2250 2253 2259 2270 2294 2309 2329 2348 2375 2412 2426 2393 2353 2310 2272 2237 2218 2215 2241 2263 2252 2238 2257 2286 2330 2348 2330
2894 2899 2899 2892 2891 2891 2892 2886 2877 2875 2871 2869 2863 2858 2851 2849 2847 2839 2837 2839 2842 2839 2834 2829 2822 2815 2808 2800 2791 2791 2791 2791 2791 2791 2791 2791 2793 2798 2799 2799 2804 2806 2807 2801 2795 2792 2792 2790 2783 2775 2764 2754 2749 2744 2742 2737 2731 2724 2719 2715 2707 2701 2699 2693 2688 2687 2684 2680 2681 2678 2677 2672 2669 2665 2657 2652 2648 2642 2633 2631 2637 2642 2636 2628 2620 2617 2618 2621 2622 2626 2638 2656 2668 2673 2672 2674 2677 2678 2680 2681 2679 2677 2673 2669 2664 2657 2650 2643 2637 2631 2623 2619 2621 2610 2606 2611 2610 2605 2601 2610 2621 2629 2635 2648 2658 2660 2659 2651 2639 2629 2622 2612 2604 2596 2590 2585 2580 2575 2566 2560 2553 2540 2533 2532 2537 2536 2537 2525 2518 2528 2535 2551 2570 2580 2568 2553 2533 2516 2525 2549 2570 2582 2583 2567 2552 2525 2502 2476 2458 2424 2388 2342 2324 2329 2334 2336 2336 2335 2314 2286 2268 2253 2246 2243 2233 2214 2198 2177 2158 2160 2172 2178 2173 2174 2189 2191 2186 2178 2193 2188 2183 2187 2190 2185 2164 2169 2197 2215 2211 2223 2253 2271 2266 2237 2223 2236 2256 2272 2281 2297 2322 2351 2392 2394 2347 2313 2280 2257 2228 2207 2203 2220 2233 2216 2208 2232 2286 2322 2342 2322
2885 2887 2894 2891 2893 2890 2885 2877 2866 2865 2867 2873 2871 2871 2870 2869 2868 2863 2852 2847 2848 2846 2834 2825 2818 2812 2808 2800 2793 2791 2791 2791 2791 2791 2791 2791 2796 2806 2805 2804 2803 2801 2799 2797 2798 2798 2802 2799 2792 2781 2768 2758 2751 2744 2739 2735 2725 2717 2712 2704 2695 2690 2686 2681 2675 2675 2674 2669 2664 2655 2654 2653 2648 2643 2640 2637 2634 2633 2633 2648 2659 2662 2658 2638 2622 2622 2630 2637 2636 2632 2647 2667 2680 2687 2690 2693 2700 2705 2705 2706 2706 2704 2698 2693 2689 2683 2671 2659 2649 2641 2634 2631 2626 2618 2619 2622 2617 2611 2616 2629 2641 2648 2651 2659 2663 2660 2656 2650 2642 2630 2619 2610 2604 2598 2591 2589 2586 2574 2565 2558 2551 2542 2527 2518 2516 2519 2518 2509 2502 2513 2525 2544 2561 2562 2546 2529 2510 2491 2503 2527 2550 2559 2553 2548 2544 2498 2468 2460 2457 2428 2391 2361 2335 2305 2293 2292 2311 2330 2318 2288 2268 2253 2243 2233 2219 2205 2193 2188 2176 2153 2145 2141 2140 2146 2155 2153 2153 2150 2168 2168 2168 2175 2171 2173 2162 2153 2175 2189 2205 2243 2278 2288 2260 2225 2205 2215 2228 2239 2257 2277 2294 2320 2356 2354 2311 2277 2242 2228 2218 2199 2184 2198 2203 2187 2191 2221 2247 2269 2303 2322
2882 2881 2884 2884 2884 2879 2879 2876 2873 2880 2883 2881 2877 2873 2873 2866 2864 2868 2863 2860 2854 2853 2847 2834 2820 2813 2805 2799 2792 2791 2791 2791 2791 2791 2791 2795 2817 2831 2833 2828 2823 2818 2814 2813 2810 2806 2803 2796 2788 2781 2774 2762 2751 2743 2736 2731 2723 2716 2710 2703 2693 2684 2676 2672 2666 2663 2659 2656 2652 2647 2646 2643 2641 2639 2637 2633 2633 2635 2643 2655 2660 2661 2654 2638 2626 2634 2656 2662 2656 2647 2644 2659 2672 2678 2685 2696 2705 2713 2721 2725 2728 2725 2719 2713 2705 2691 2681 2670 2665 2654 2645 2634 2625 2624 2626 2628 2622 2619 2626 2637 2651 2660 2667 2669 2667 2662 2657 2649 2640 2631 2621 2613 2615 2612 2608 2601 2589 2579 2571 2563 2550 2535 2530 2528 2516 2506 2500 2491 2487 2491 2504 2521 2536 2534 2517 2497 2479 2479 2499 2529 2539 2528 2506 2503 2501 2465 2426 2407 2416 2431 2417 2390 2355 2327 2294 2270 2273 2287 2284 2262 2241 2228 2210 2198 2183 2171 2167 2168 2165 2151 2138 2137 2132 2125 2122 2119 2120 2125 2140 2148 2149 2152 2153 2163 2163 2145 2161 2173 2204 2243 2277 2288 2256 2220 2198 2192 2195 2204 2220 2237 2258 2288 2316 2326 2322 2281 2247 2218 2197 2177 2168 2173 2162 2161 2171 2186 2198 2213 2241 2276
2892 2889 2888 2890 2892 2892 2896 2900 2900 2898 2894 2887 2882 2876 2875 2868 2866 2867 2866 2860 2855 2855 2853 2839 2827 2818 2810 2809 2808 2806 2796 2791 2791 2791 2791 2804 2835 2850 2847 2835 2832 2829 2823 2815 2807 2799 2793 2787 2779 2772 2766 2756 2747 2736 2729 2724 2713 2708 2703 2695 2687 2682 2678 2670 2664 2659 2657 2656 2652 2648 2646 2644 2642 2643 2641 2638 2636 2637 2640 2641 2646 2646 2640 2630 2627 2645 2670 2677 2675 2669 2659 2657 2659 2668 2674 2685 2696 2709 2717 2723 2727 2726 2718 2711 2704 2702 2697 2689 2674 2660 2648 2638 2632 2633 2633 2632 2628 2625 2631 2638 2648 2660 2667 2668 2661 2660 2656 2648 2639 2630 2626 2622 2623 2620 2613 2605 2593 2581 2573 2563 2549 2541 2548 2547 2538 2528 2517 2498 2486 2473 2473 2480 2492 2497 2485 2467 2455 2472 2498 2508 2488 2468 2451 2462 2467 2429 2392 2364 2376 2390 2391 2399 2379 2343 2302 2268 2247 2248 2245 2222 2205 2191 2180 2177 2171 2168 2161 2160 2161 2160 2155 2157 2155 2142 2132 2126 2120 2114 2117 2125 2133 2133 2135 2148 2147 2133 2152 2164 2193 2227 2263 2283 2276 2245 2214 2182 2167 2191 2221 2246 2268 2284 2313 2334 2312 2278 2257 2240 2221 2195 2173 2160 2143 2134 2132 2136 2145 2163 2194 2223
2901 2900 2899 2907 2908 2909 2910 2910 2911 2911 2900 2891 2886 2883 2882 2878 2877 2873 2871 2863 2858 2859 2856 2847 2840 2829 2824 2819 2816 2807 2796 2791 2791 2791 2794 2813 2840 2853 2848 2835 2825 2815 2811 2803 2795 2791 2784 2776 2770 2761 2755 2746 2737 2730 2728 2724 2716 2706 2703 2696 2688 2683 2675 2669 2663 2656 2656 2652 2649 2649 2647 2651 2657 2660 2660 2658 2655 2652 2651 2644 2641 2640 2636 2629 2629 2638 2660 2679 2688 2685 2678 2664 2662 2676 2683 2690 2698 2705 2712 2717 2717 2714 2711 2714 2723 2725 2718 2703 2680 2659 2644 2637 2637 2643 2642 2639 2633 2632 2633 2639 2650 2658 2661 2661 2659 2657 2653 2645 2636 2628 2625 2617 2619 2618 2607 2600 2586 2574 2564 2556 2554 2561 2562 2554 2544 2534 2521 2504 2487 2467 2450 2440 2446 2459 2453 2439 2451 2473 2478 2459 2425 2402 2398 2435 2429 2381 2352 2326 2333 2333 2345 2373 2371 2343 2304 2269 2241 2220 2206 2193 2192 2204 2202 2202 2213 2201 2182 2188 2204 2201 2193 2184 2182 2176 2155 2145 2135 2125 2113 2111 2116 2116 2118 2129 2129 2126 2144 2148 2173 2203 2221 2246 2241 2217 2192 2167 2155 2177 2217 2250 2286 2313 2330 2316 2267 2230 2208 2203 2204 2199 2195 2191 2185 2165 2141 2117 2109 2113 2146 2181
2905 2909 2916 2919 2922 2920 2914 2911 2910 2908 2901 2895 2892 2884 2880 2879 2879 2879 2878 2870 2868 2864 2856 2847 2846 2839 2832 2825 2820 2810 2798 2793 2792 2799 2810 2822 2835 2841 2838 2827 2821 2818 2816 2817 2816 2809 2793 2780 2769 2760 2751 2738 2726 2723 2722 2720 2714 2709 2701 2694 2688 2681 2675 2670 2665 2659 2655 2654 2654 2658 2659 2662 2663 2664 2666 2667 2664 2663 2659 2655 2652 2649 2646 2638 2634 2637 2651 2672 2687 2690 2683 2670 2670 2684 2696 2703 2710 2713 2716 2718 2719 2719 2727 2736 2744 2745 2728 2704 2678 2662 2652 2649 2653 2662 2658 2651 2647 2643 2641 2649 2654 2654 2652 2655 2654 2650 2645 2636 2628 2621 2614 2608 2605 2601 2594 2585 2576 2571 2569 2575 2585 2585 2571 2554 2543 2532 2520 2508 2498 2488 2469 2442 2428 2434 2428 2436 2465 2476 2446 2408 2366 2347 2363 2385 2383 2339 2307 2294 2288 2284 2303 2331 2341 2331 2303 2270 2246 2212 2204 2219 2232 2236 2229 2226 2227 2213 2196 2203 2224 2237 2227 2217 2202 2185 2169 2170 2156 2139 2119 2107 2105 2103 2099 2102 2104 2115 2140 2139 2149 2173 2186 2201 2195 2173 2151 2139 2150 2183 2222 2259 2287 2298 2300 2288 2253 2214 2181 2152 2142 2138 2152 2179 2201 2198 2168 2136 2106 2091 2114 2159
2914 2919 2924 2921 2920 2919 2915 2912 2910 2907 2903 2898 2896 2890 2885 2886 2890 2890 2880 2871 2868 2862 2855 2852 2848 2843 2835 2828 2823 2813 2801 2797 2796 2812 2833 2839 2841 2842 2839 2837 2830 2831 2837 2839 2830 2816 2800 2786 2771 2756 2742 2731 2718 2715 2714 2715 2715 2711 2702 2691 2687 2680 2675 2669 2662 2664 2662 2662 2665 2667 2671 2674 2671 2673 2672 2671 2670 2667 2665 2664 2660 2655 2649 2641 2637 2635 2647 2665 2680 2686 2684 2679 2674 2684 2697 2704 2709 2709 2711 2716 2725 2739 2753 2764 2764 2754 2735 2706 2680 2665 2663 2669 2673 2678 2675 2666 2658 2652 2652 2654 2655 2652 2649 2648 2647 2641 2633 2627 2624 2616 2609 2607 2599 2594 2589 2588 2590 2593 2598 2608 2608 2584 2564 2551 2542 2533 2525 2517 2512 2503 2486 2459 2420 2409 2418 2448 2479 2470 2428 2389 2354 2346 2334 2338 2330 2306 2301 2307 2300 2274 2268 2278 2277 2279 2275 2254 2229 2215 2241 2270 2271 2258 2251 2245 2238 2223 2212 2221 2241 2251 2249 2232 2208 2187 2174 2167 2146 2141 2144 2140 2122 2105 2100 2099 2094 2097 2108 2116 2127 2141 2150 2155 2147 2139 2123 2136 2173 2218 2252 2274 2274 2256 2249 2258 2250 2220 2181 2142 2114 2097 2113 2147 2168 2161 2141 2119 2087 2075 2107 2158
2923 2926 2932 2928 2926 2926 2921 2914 2912 2911 2906 2899 2899 2896 2891 2892 2894 2893 2888 2886 2874 2864 2858 2854 2847 2840 2834 2829 2822 2815 2808 2800 2800 2815 2838 2844 2841 2842 2841 2837 2837 2838 2840 2838 2825 2814 2800 2782 2768 2756 2739 2726 2717 2710 2706 2701 2695 2692 2687 2683 2678 2674 2671 2669 2669 2673 2674 2677 2681 2686 2692 2694 2693 2690 2686 2684 2679 2679 2677 2673 2669 2661 2648 2640 2639 2639 2645 2655 2671 2683 2682 2680 2678 2679 2683 2691 2694 2701 2711 2719 2729 2745 2762 2768 2765 2752 2738 2713 2689 2677 2679 2689 2689 2691 2688 2681 2673 2668 2663 2660 2660 2658 2657 2654 2646 2638 2632 2628 2624 2621 2617 2613 2609 2606 2603 2599 2603 2610 2614 2614 2600 2575 2558 2547 2538 2528 2522 2516 2508 2501 2482 2454 2421 2400 2409 2435 2450 2436 2413 2385 2360 2359 2355 2330 2316 2327 2352 2345 2317 2278 2249 2244 2243 2242 2236 2222 2226 2248 2276 2300 2300 2280 2262 2253 2246 2237 2236 2248 2253 2250 2239 2219 2201 2183 2169 2154 2147 2173 2176 2160 2142 2122 2117 2116 2104 2097 2091 2090 2096 2104 2105 2102 2104 2104 2119 2155 2197 2234 2247 2238 2218 2199 2194 2219 2242 2221 2189 2141 2111 2075 2075 2095 2116 2114 2092 2072 2067 2088 2120 2130
2937 2937 2940 2937 2933 2930 2924 2918 2916 2912 2906 2904 2903 2900 2897 2899 2899 2903 2905 2904 2887 2865 2854 2853 2847 2842 2835 2834 2829 2819 2808 2803 2800 2811 2828 2838 2837 2836 2833 2837 2838 2832 2827 2823 2817 2808 2799 2783 2763 2751 2742 2736 2733 2731 2722 2706 2691 2686 2683 2681 2679 2679 2677 2678 2679 2682 2682 2684 2688 2689 2693 2696 2699 2698 2699 2697 2696 2694 2688 2683 2679 2670 2652 2647 2655 2662 2659 2659 2667 2680 2682 2682 2683 2683 2686 2693 2699 2707 2719 2724 2728 2736 2743 2748 2750 2744 2736 2718 2700 2696 2698 2699 2696 2696 2695 2690 2681 2677 2676 2670 2665 2661 2656 2652 2646 2641 2637 2635 2634 2630 2625 2617 2614 2612 2609 2605 2607 2610 2609 2601 2589 2573 2555 2544 2537 2527 2517 2510 2492 2480 2464 2435 2407 2396 2397 2401 2404 2391 2387 2384 2371 2366 2378 2370 2374 2382 2372 2329 2293 2286 2275 2281 2286 2271 2255 2259 2273 2297 2313 2315 2306 2290 2274 2264 2259 2261 2261 2270 2261 2241 2221 2202 2186 2173 2159 2156 2167 2186 2175 2153 2137 2134 2153 2154 2138 2123 2111 2103 2097 2094 2094 2098 2087 2108 2148 2179 2205 2221 2206 2186 2168 2150 2171 2198 2207 2188 2152 2123 2091 2064 2044 2054 2069 2068 2054 2051 2082 2111 2112 2099
2949 2950 2949 2945 2938 2933 2929 2925 2921 2917 2915 2916 2910 2905 2906 2908 2913 2913 2911 2914 2906 2877 2861 2856 2854 2849 2845 2841 2836 2826 2814 2808 2806 2814 2822 2833 2839 2834 2829 2829 2824 2817 2813 2805 2799 2791 2780 2768 2759 2753 2752 2746 2742 2741 2730 2714 2704 2695 2689 2685 2684 2682 2678 2680 2683 2687 2690 2692 2693 2688 2689 2692 2694 2694 2694 2696 2700 2701 2698 2688 2681 2669 2652 2656 2672 2675 2675 2671 2670 2673 2683 2687 2689 2693 2695 2705 2712 2720 2725 2727 2729 2726 2727 2728 2727 2723 2722 2715 2707 2707 2707 2706 2703 2699 2698 2694 2688 2684 2679 2673 2667 2659 2651 2646 2641 2635 2631 2632 2635 2634 2628 2620 2616 2613 2603 2599 2596 2596 2596 2592 2580 2568 2556 2545 2538 2526 2517 2497 2472 2445 2430 2410 2402 2420 2439 2435 2429 2425 2400 2386 2379 2401 2427 2435 2429 2406 2360 2326 2326 2328 2320 2335 2353 2339 2323 2322 2324 2338 2341 2321 2304 2292 2275 2266 2272 2273 2271 2260 2240 2220 2199 2183 2173 2175 2184 2197 2201 2189 2169 2154 2143 2152 2175 2187 2175 2160 2145 2128 2118 2108 2105 2104 2083 2110 2148 2164 2168 2162 2157 2138 2122 2125 2145 2149 2143 2134 2119 2085 2056 2029 2017 2019 2020 2027 2032 2037 2064 2088 2080 2067
2959 2960 2961 2956 2946 2942 2938 2931 2929 2927 2925 2920 2916 2912 2915 2921 2923 2921 2917 2922 2921 2900 2877 2870 2866 2862 2859 2853 2844 2833 2820 2817 2817 2819 2826 2834 2839 2832 2822 2819 2815 2808 2801 2790 2784 2778 2773 2766 2765 2757 2752 2747 2749 2746 2737 2725 2717 2710 2700 2698 2700 2696 2695 2692 2691 2690 2691 2691 2690 2684 2684 2686 2685 2682 2678 2679 2683 2689 2692 2685 2675 2664 2660 2674 2686 2689 2686 2683 2682 2680 2686 2693 2698 2698 2698 2708 2717 2726 2727 2728 2727 2725 2722 2721 2717 2711 2708 2706 2698 2697 2696 2701 2703 2703 2701 2698 2694 2685 2676 2673 2667 2659 2657 2651 2645 2637 2627 2627 2632 2636 2630 2621 2615 2607 2601 2591 2582 2583 2583 2583 2574 2562 2552 2540 2533 2519 2500 2478 2461 2442 2424 2405 2414 2445 2476 2490 2483 2460 2443 2434 2425 2436 2463 2479 2458 2415 2369 2351 2365 2370 2363 2381 2401 2396 2380 2374 2370 2365 2352 2325 2307 2291 2284 2273 2264 2255 2243 2226 2212 2205 2201 2202 2202 2204 2203 2201 2199 2185 2169 2158 2153 2164 2190 2199 2176 2146 2130 2124 2122 2119 2108 2095 2080 2096 2103 2104 2103 2099 2098 2090 2079 2082 2084 2078 2077 2088 2079 2040 2020 2016 2032 2035 2021 2008 2023 2022 2042 2063 2054 2037
2970 2969 2965 2958 2950 2950 2945 2942 2940 2938 2930 2927 2922 2925 2926 2931 2930 2927 2921 2928 2930 2913 2897 2898 2896 2883 2872 2863 2855 2841 2831 2826 2826 2828 2835 2840 2844 2835 2823 2814 2807 2802 2797 2791 2787 2782 2782 2783 2772 2767 2763 2759 2755 2752 2747 2733 2724 2717 2711 2710 2712 2711 2712 2714 2717 2712 2702 2693 2688 2685 2685 2686 2681 2678 2675 2673 2670 2670 2673 2666 2660 2662 2680 2699 2707 2700 2692 2694 2695 2689 2689 2701 2706 2708 2706 2709 2714 2719 2723 2727 2729 2726 2722 2720 2714 2710 2708 2707 2700 2689 2684 2686 2691 2695 2693 2692 2692 2685 2676 2673 2671 2672 2672 2662 2653 2644 2630 2617 2618 2621 2620 2618 2612 2604 2596 2588 2580 2575 2571 2567 2565 2560 2546 2530 2515 2503 2493 2489 2475 2445 2411 2410 2432 2465 2498 2521 2519 2503 2485 2472 2455 2462 2491 2498 2464 2426 2394 2384 2398 2403 2396 2400 2418 2426 2431 2425 2412 2394 2373 2343 2319 2294 2278 2264 2250 2235 2227 2229 2232 2229 2225 2234 2233 2229 2220 2207 2193 2181 2174 2166 2165 2179 2190 2183 2153 2140 2152 2174 2171 2161 2135 2107 2082 2078 2071 2066 2065 2065 2061 2061 2057 2060 2049 2045 2039 2047 2040 2032 2037 2059 2080 2065 2036 2007 2009 2008 2018 2037 2033 2012
2982 2979 2973 2966 2961 2960 2956 2957 2956 2952 2941 2939 2937 2935 2934 2937 2934 2931 2928 2932 2934 2923 2918 2919 2916 2906 2890 2874 2863 2850 2838 2831 2833 2835 2845 2853 2850 2841 2831 2823 2817 2813 2807 2800 2799 2797 2791 2786 2779 2774 2770 2765 2764 2762 2753 2740 2728 2722 2716 2718 2718 2717 2720 2722 2725 2725 2718 2713 2705 2700 2697 2691 2686 2682 2680 2679 2672 2663 2659 2659 2673 2687 2699 2702 2700 2692 2690 2693 2694 2694 2704 2719 2726 2725 2720 2720 2720 2720 2720 2721 2724 2719 2711 2710 2710 2705 2702 2699 2691 2682 2675 2672 2674 2674 2673 2673 2677 2673 2666 2663 2665 2666 2664 2660 2651 2640 2629 2617 2607 2606 2613 2619 2616 2607 2601 2594 2586 2579 2570 2559 2553 2549 2535 2522 2518 2509 2497 2480 2453 2430 2414 2434 2463 2491 2518 2545 2550 2540 2525 2512 2497 2506 2519 2503 2466 2433 2415 2420 2425 2425 2417 2418 2435 2447 2455 2444 2424 2401 2370 2343 2317 2294 2270 2257 2247 2244 2257 2264 2260 2249 2252 2269 2272 2261 2240 2219 2207 2194 2182 2178 2175 2178 2170 2158 2143 2160 2189 2215 2208 2190 2164 2135 2112 2093 2104 2113 2110 2115 2114 2118 2118 2106 2084 2071 2058 2052 2050 2065 2081 2098 2086 2059 2037 2019 2011 1997 1993 1999 1997 1988
2992 2987 2983 2978 2976 2975 2974 2975 2970 2961 2954 2956 2955 2953 2952 2953 2949 2942 2938 2941 2948 2944 2936 2930 2925 2917 2898 2883 2871 2857 2849 2845 2840 2843 2852 2859 2857 2851 2842 2837 2834 2830 2824 2816 2807 2802 2797 2791 2782 2779 2779 2776 2773 2770 2759 2747 2740 2736 2734 2731 2720 2715 2713 2715 2719 2719 2720 2719 2714 2708 2702 2695 2690 2685 2681 2674 2666 2662 2665 2679 2692 2698 2700 2699 2696 2697 2701 2704 2703 2703 2720 2735 2743 2741 2740 2738 2740 2740 2736 2730 2728 2720 2711 2707 2705 2698 2694 2692 2682 2675 2668 2661 2660 2659 2657 2659 2662 2664 2658 2654 2655 2655 2655 2652 2645 2632 2621 2616 2606 2599 2606 2610 2609 2606 2604 2599 2591 2581 2572 2560 2553 2544 2541 2537 2520 2497 2472 2449 2424 2418 2432 2458 2491 2513 2540 2566 2583 2579 2571 2552 2541 2549 2544 2512 2484 2464 2459 2466 2467 2452 2437 2435 2435 2426 2420 2409 2392 2369 2340 2315 2297 2290 2284 2274 2260 2268 2292 2298 2283 2271 2284 2302 2306 2280 2252 2230 2216 2200 2191 2185 2176 2175 2176 2166 2159 2189 2218 2244 2247 2231 2210 2178 2149 2135 2153 2153 2162 2189 2188 2178 2149 2113 2106 2118 2124 2117 2111 2114 2116 2105 2080 2068 2067 2069 2059 2032 2008 2004 2001 1992
3006 3002 2999 2995 2993 2990 2985 2982 2980 2977 2975 2975 2968 2966 2964 2966 2961 2951 2946 2951 2962 2960 2949 2943 2939 2929 2910 2894 2881 2871 2865 2860 2852 2852 2859 2866 2865 2860 2855 2850 2848 2843 2836 2821 2808 2802 2799 2796 2784 2780 2780 2782 2786 2784 2772 2763 2759 2754 2747 2742 2728 2717 2709 2704 2704 2706 2709 2711 2710 2707 2698 2695 2691 2685 2677 2672 2669 2673 2688 2698 2705 2710 2713 2714 2717 2728 2731 2725 2716 2711 2722 2733 2739 2742 2745 2742 2742 2742 2746 2741 2737 2733 2727 2716 2707 2698 2693 2687 2679 2673 2664 2654 2649 2645 2644 2644 2648 2649 2645 2645 2647 2650 2654 2652 2643 2632 2621 2612 2603 2594 2589 2591 2595 2591 2592 2591 2587 2577 2570 2562 2557 2554 2547 2527 2500 2473 2445 2428 2422 2441 2464 2489 2515 2540 2562 2584 2608 2619 2613 2597 2587 2585 2576 2551 2532 2517 2516 2514 2498 2478 2458 2439 2418 2398 2382 2370 2359 2348 2331 2323 2320 2313 2301 2282 2274 2287 2308 2314 2306 2302 2318 2336 2324 2297 2275 2249 2224 2207 2194 2191 2202 2215 2214 2187 2169 2190 2222 2251 2276 2269 2232 2201 2170 2165 2189 2207 2208 2231 2228 2199 2154 2129 2148 2175 2183 2181 2169 2148 2121 2108 2112 2121 2120 2114 2101 2069 2047 2051 2065 2044
3020 3016 3013 3009 3009 3002 2992 2992 2996 3002 3006 3003 2993 2984 2981 2978 2973 2958 2956 2965 2973 2972 2968 2966 2960 2945 2928 2912 2900 2891 2881 2870 2863 2865 2870 2875 2878 2876 2868 2858 2850 2842 2836 2827 2814 2804 2799 2795 2790 2785 2787 2788 2786 2780 2773 2766 2762 2757 2754 2747 2733 2719 2712 2705 2701 2699 2696 2697 2698 2695 2696 2703 2708 2703 2684 2675 2677 2688 2699 2711 2718 2727 2733 2744 2748 2751 2748 2738 2725 2724 2729 2736 2739 2743 2745 2741 2736 2735 2739 2740 2741 2744 2743 2731 2718 2708 2698 2691 2687 2677 2667 2660 2650 2638 2635 2631 2633 2633 2632 2632 2637 2642 2645 2644 2637 2628 2620 2610 2602 2594 2583 2579 2583 2583 2583 2584 2581 2577 2570 2564 2555 2543 2533 2521 2491 2457 2430 2426 2442 2464 2494 2520 2545 2574 2595 2616 2638 2652 2658 2646 2636 2635 2629 2606 2589 2570 2563 2551 2528 2504 2483 2450 2417 2391 2386 2390 2390 2387 2376 2361 2343 2323 2303 2287 2290 2302 2318 2329 2328 2336 2350 2357 2342 2321 2290 2259 2229 2210 2207 2211 2228 2250 2255 2234 2193 2182 2203 2231 2262 2282 2263 2233 2219 2205 2221 2256 2267 2256 2235 2198 2168 2157 2187 2217 2221 2201 2174 2149 2135 2138 2157 2176 2171 2144 2120 2100 2087 2094 2106 2091
3033 3028 3024 3017 3014 3009 3003 3004 3007 3016 3023 3025 3022 3017 3009 2998 2981 2969 2967 2974 2981 2983 2985 2980 2980 2966 2950 2931 2918 2907 2896 2885 2884 2890 2895 2890 2886 2878 2868 2861 2852 2844 2838 2831 2818 2804 2798 2795 2794 2790 2792 2789 2783 2777 2772 2767 2765 2761 2759 2754 2742 2726 2718 2711 2704 2699 2695 2696 2701 2704 2708 2709 2708 2701 2691 2683 2694 2704 2715 2721 2724 2726 2735 2743 2750 2752 2750 2742 2734 2737 2743 2744 2745 2748 2751 2749 2747 2748 2749 2748 2744 2742 2741 2731 2718 2707 2699 2695 2691 2686 2677 2669 2659 2647 2638 2627 2621 2618 2619 2618 2618 2621 2623 2623 2621 2617 2612 2607 2599 2592 2582 2572 2577 2582 2583 2583 2584 2584 2575 2568 2549 2524 2506 2498 2484 2460 2437 2442 2463 2482 2513 2540 2566 2595 2627 2655 2671 2680 2690 2679 2667 2661 2652 2632 2618 2605 2592 2567 2543 2515 2488 2451 2423 2417 2424 2430 2427 2416 2399 2379 2351 2317 2306 2312 2323 2332 2333 2341 2356 2369 2376 2358 2331 2306 2284 2258 2232 2222 2217 2224 2247 2265 2265 2239 2205 2197 2216 2224 2242 2270 2281 2282 2277 2263 2255 2281 2309 2293 2262 2223 2199 2188 2219 2250 2229 2196 2171 2170 2170 2183 2205 2221 2206 2177 2163 2153 2143 2145 2155 2144
3043 3037 3031 3025 3019 3010 3006 3007 3014 3019 3025 3027 3025 3021 3017 3007 2991 2978 2975 2981 2983 2987 2990 2989 2987 2981 2966 2945 2930 2919 2912 2907 2907 2907 2903 2894 2886 2875 2867 2861 2851 2845 2839 2829 2815 2809 2807 2805 2800 2796 2793 2788 2782 2780 2778 2773 2770 2768 2767 2760 2745 2734 2722 2714 2708 2704 2700 2709 2720 2722 2724 2720 2714 2706 2696 2699 2719 2729 2735 2737 2733 2731 2736 2740 2746 2748 2747 2745 2741 2743 2743 2744 2745 2748 2747 2747 2752 2758 2761 2759 2750 2740 2731 2724 2715 2708 2707 2707 2700 2696 2689 2678 2662 2654 2644 2636 2628 2622 2612 2607 2603 2600 2602 2602 2604 2604 2603 2600 2593 2586 2577 2566 2572 2577 2580 2582 2583 2579 2571 2564 2549 2522 2496 2472 2455 2442 2446 2465 2487 2501 2524 2557 2590 2618 2642 2671 2688 2691 2693 2687 2675 2660 2650 2637 2623 2605 2591 2567 2538 2507 2472 2450 2443 2455 2460 2447 2430 2402 2378 2358 2336 2329 2344 2360 2367 2370 2365 2363 2370 2378 2370 2350 2314 2283 2265 2254 2251 2245 2243 2249 2252 2264 2256 2222 2215 2238 2265 2255 2241 2259 2280 2300 2324 2329 2319 2320 2331 2311 2273 2241 2225 2230 2257 2267 2238 2202 2196 2212 2225 2230 2252 2261 2249 2227 2218 2214 2207 2194 2183 2171
3059 3049 3041 3033 3026 3017 3013 3013 3013 3019 3022 3023 3021 3018 3017 3014 3002 2985 2982 2988 2991 2993 2996 2995 2992 2988 2975 2957 2943 2933 2930 2925 2918 2912 2906 2896 2893 2885 2873 2859 2850 2845 2840 2836 2826 2822 2821 2817 2812 2802 2797 2792 2789 2789 2787 2782 2778 2775 2773 2761 2750 2738 2725 2718 2717 2715 2711 2723 2731 2734 2730 2724 2724 2718 2702 2697 2715 2728 2737 2741 2740 2737 2735 2739 2743 2746 2747 2744 2742 2741 2740 2740 2738 2738 2743 2746 2746 2748 2752 2750 2746 2740 2730 2720 2714 2708 2705 2700 2697 2694 2689 2686 2675 2664 2654 2643 2634 2626 2618 2610 2610 2604 2597 2592 2593 2593 2592 2586 2581 2577 2569 2560 2563 2568 2575 2573 2564 2553 2550 2548 2547 2543 2523 2486 2449 2441 2470 2502 2523 2528 2537 2563 2593 2620 2646 2669 2684 2693 2692 2687 2680 2668 2657 2653 2642 2626 2607 2580 2546 2512 2493 2485 2480 2483 2481 2456 2430 2402 2380 2355 2340 2354 2386 2415 2422 2417 2400 2396 2394 2379 2351 2329 2304 2288 2282 2282 2272 2272 2276 2263 2245 2240 2240 2226 2250 2291 2308 2285 2267 2291 2319 2326 2338 2359 2371 2368 2340 2309 2284 2283 2281 2285 2296 2272 2239 2229 2243 2268 2277 2282 2300 2313 2304 2281 2257 2228 2205 2185 2155 2135
