NCOLS 50
NROWS 37
XLLCORNER 556440
YLLCORNER 5394932
CELLSIZE 1
NODATA_value -9999
543.340026855468977 543.299987792969 543.27001953125 543.260009765625 543.309997558594 543.320007324219 543.340026855469 543.359985351562 543.380004882812 543.400024414062 543.409973144531 543.429992675781 543.440002441406 543.390014648438 543.320007324219 543.340026855469 543.349975585938 543.380004882812 543.450012207031 543.549987792969 543.549987792969 543.559997558594 543.52001953125 543.539978027344 543.539978027344 543.549987792969 543.609985351562 543.659973144531 543.719970703125 543.789978027344 543.719970703125 543.72998046875 543.700012207031 543.799987792969 543.739990234375 543.700012207031 543.530029296875 543.409973144531 543.030029296875 542.330017089844 541.929992675781 541.380004882812 540.679992675781 540.320007324219 540.059997558594 539.830017089844 539.590026855469 539.400024414062 539.27001953125 539.190002441406
543.359985351562 543.359985351562 543.330017089844 543.280029296875 543.299987792969 543.309997558594 543.309997558594 543.320007324219 543.330017089844 543.340026855469 543.349975585938 543.369995117188 543.340026855469 543.309997558594 543.280029296875 543.320007324219 543.369995117188 543.390014648438 543.429992675781 543.52001953125 543.559997558594 543.570007324219 543.52001953125 543.510009765625 543.510009765625 543.570007324219 543.609985351562 543.710021972656 543.75 543.789978027344 543.710021972656 543.659973144531 543.690002441406 543.690002441406 543.5 543.510009765625 543.030029296875 542.419982910156 541.840026855469 541.450012207031 540.840026855469 540.330017089844 540.150024414062 539.830017089844 539.609985351562 539.419982910156 539.239990234375 539.119995117188 539.010009765625 538.830017089844
543.380004882812 543.349975585938 543.330017089844 543.340026855469 543.330017089844 543.330017089844 543.280029296875 543.289978027344 543.289978027344 543.289978027344 543.299987792969 543.320007324219 543.299987792969 543.280029296875 543.289978027344 543.320007324219 543.340026855469 543.359985351562 543.429992675781 543.530029296875 543.549987792969 543.539978027344 543.5 543.549987792969 543.609985351562 543.570007324219 543.619995117188 543.75 543.760009765625 543.75 543.690002441406 543.609985351562 543.489990234375 543.22998046875 542.820007324219 542.580017089844 542.059997558594 541.340026855469 540.719970703125 540.400024414062 540.140014648438 539.909973144531 539.580017089844 539.359985351562 539.210021972656 539.070007324219 538.929992675781 538.799987792969 538.650024414062 538.469970703125
543.409973144531 543.390014648438 543.330017089844 543.320007324219 543.309997558594 543.349975585938 543.260009765625 543.260009765625 543.260009765625 543.27001953125 543.289978027344 543.330017089844 543.320007324219 543.289978027344 543.280029296875 543.299987792969 543.320007324219 543.359985351562 543.390014648438 543.409973144531 543.429992675781 543.469970703125 543.549987792969 543.599975585938 543.650024414062 543.549987792969 543.640014648438 543.77001953125 543.809997558594 543.780029296875 543.659973144531 543.429992675781 542.940002441406 542.440002441406 542.010009765625 541.47998046875 540.900024414062 540.380004882812 540.099975585938 539.820007324219 539.590026855469 539.340026855469 539.260009765625 539.059997558594 538.909973144531 538.809997558594 538.690002441406 538.549987792969 538.380004882812 538.359985351562
543.349975585938 543.330017089844 543.280029296875 543.299987792969 543.260009765625 543.219970703125 543.22998046875 543.219970703125 543.25 543.280029296875 543.25 543.219970703125 543.27001953125 543.25 543.260009765625 543.25 543.299987792969 543.330017089844 543.320007324219 543.369995117188 543.460021972656 543.549987792969 543.570007324219 543.669982910156 543.659973144531 543.580017089844 543.630004882812 543.690002441406 543.719970703125 543.719970703125 543.669982910156 543.210021972656 542.349975585938 541.429992675781 540.940002441406 540.559997558594 540.119995117188 539.809997558594 539.590026855469 539.359985351562 539.140014648438 539.049987792969 538.950012207031 538.809997558594 538.609985351562 538.559997558594 538.429992675781 538.340026855469 538.309997558594 538.309997558594
543.359985351562 543.330017089844 543.299987792969 543.299987792969 543.299987792969 543.239990234375 543.219970703125 543.260009765625 543.219970703125 543.159973144531 543.140014648438 543.190002441406 543.25 543.219970703125 543.25 543.260009765625 543.280029296875 543.280029296875 543.390014648438 543.440002441406 543.530029296875 543.599975585938 543.619995117188 543.640014648438 543.669982910156 543.609985351562 543.570007324219 543.609985351562 543.489990234375 543.489990234375 543.239990234375 542.47998046875 541.52001953125 540.530029296875 540.190002441406 539.789978027344 539.5 539.340026855469 539.169982910156 539 538.940002441406 538.739990234375 538.619995117188 538.440002441406 538.419982910156 538.359985351562 538.299987792969 538.309997558594 538.289978027344 538.309997558594
543.27001953125 543.25 543.239990234375 543.22998046875 543.22998046875 543.239990234375 543.210021972656 543.140014648438 543.109985351562 543.080017089844 543.099975585938 543.169982910156 543.239990234375 543.260009765625 543.280029296875 543.280029296875 543.309997558594 543.340026855469 543.419982910156 543.510009765625 543.489990234375 543.590026855469 543.630004882812 543.640014648438 543.630004882812 543.619995117188 543.549987792969 543.380004882812 543.190002441406 542.97998046875 542.25 541.489990234375 540.599975585938 539.940002441406 539.700012207031 539.320007324219 539.140014648438 539.030029296875 538.890014648438 538.710021972656 538.539978027344 538.330017089844 538.340026855469 538.340026855469 538.289978027344 538.289978027344 538.299987792969 538.320007324219 538.289978027344 538.330017089844
543.200012207031 543.159973144531 543.169982910156 543.200012207031 543.25 543.27001953125 543.27001953125 543.219970703125 543.169982910156 543.090026855469 543.080017089844 543.099975585938 543.150024414062 543.219970703125 543.150024414062 543.119995117188 543.299987792969 543.299987792969 543.469970703125 543.52001953125 543.47998046875 543.469970703125 543.47998046875 543.570007324219 543.570007324219 543.330017089844 543.179992675781 542.840026855469 541.830017089844 541.47998046875 541.260009765625 540.489990234375 539.72998046875 539.489990234375 539.200012207031 539 538.869995117188 538.77001953125 538.640014648438 538.469970703125 538.320007324219 538.260009765625 538.239990234375 538.239990234375 538.239990234375 538.260009765625 538.27001953125 538.289978027344 538.299987792969 538.369995117188
543.25 543.25 543.200012207031 543.239990234375 543.260009765625 543.25 543.289978027344 543.239990234375 543.179992675781 543.109985351562 543.02001953125 543.030029296875 542.989990234375 542.960021972656 542.900024414062 543.030029296875 543.239990234375 543.340026855469 543.440002441406 543.530029296875 543.489990234375 543.369995117188 543.450012207031 543.330017089844 543.200012207031 542.940002441406 542.489990234375 541.760009765625 540.940002441406 539.880004882812 539.989990234375 539.530029296875 539.309997558594 539.090026855469 538.859985351562 538.739990234375 538.580017089844 538.489990234375 538.340026855469 538.280029296875 538.239990234375 538.239990234375 538.219970703125 538.260009765625 538.25 538.289978027344 538.299987792969 538.349975585938 538.369995117188 538.419982910156
543.330017089844 543.25 543.25 543.260009765625 543.239990234375 543.239990234375 543.25 543.200012207031 543.080017089844 542.929992675781 542.900024414062 542.760009765625 542.650024414062 542.650024414062 542.619995117188 542.890014648438 543.140014648438 543.219970703125 543.299987792969 543.380004882812 543.419982910156 543.25 543.239990234375 543.140014648438 542.739990234375 542.159973144531 541.409973144531 540.669982910156 539.940002441406 539.330017089844 539.140014648438 538.97998046875 538.909973144531 538.809997558594 538.630004882812 538.460021972656 538.340026855469 538.299987792969 538.25 538.239990234375 538.219970703125 538.280029296875 538.27001953125 538.349975585938 538.369995117188 538.390014648438 538.359985351562 538.400024414062 538.460021972656 538.460021972656
543.320007324219 543.22998046875 543.239990234375 543.219970703125 543.27001953125 543.260009765625 543.239990234375 543.099975585938 542.969970703125 542.840026855469 542.609985351562 542.429992675781 542.380004882812 542.330017089844 542.450012207031 542.590026855469 542.859985351562 542.849975585938 542.969970703125 543.080017089844 542.989990234375 542.369995117188 542.320007324219 542.010009765625 541.489990234375 541.150024414062 540.580017089844 539.830017089844 539.150024414062 539.02001953125 538.919982910156 538.760009765625 538.650024414062 538.460021972656 538.369995117188 538.289978027344 538.219970703125 538.239990234375 538.25 538.239990234375 538.289978027344 538.289978027344 538.340026855469 538.390014648438 538.419982910156 538.429992675781 538.429992675781 538.460021972656 538.47998046875 538.510009765625
543.25 543.22998046875 543.22998046875 543.239990234375 543.239990234375 543.210021972656 543.119995117188 543.010009765625 542.840026855469 542.580017089844 542.390014648438 542.210021972656 542.150024414062 542.080017089844 542.119995117188 542.169982910156 542.299987792969 542.469970703125 542.549987792969 542.619995117188 541.890014648438 541.260009765625 541.02001953125 540.780029296875 540.25 539.960021972656 539.630004882812 539.010009765625 538.840026855469 538.799987792969 538.590026855469 538.450012207031 538.390014648438 538.340026855469 538.289978027344 538.219970703125 538.25 538.280029296875 538.260009765625 538.299987792969 538.340026855469 538.369995117188 538.429992675781 538.429992675781 538.460021972656 538.5 538.5 538.530029296875 538.570007324219 538.599975585938
543.210021972656 543.210021972656 543.239990234375 543.179992675781 543.159973144531 543.109985351562 542.969970703125 542.859985351562 542.679992675781 542.440002441406 542.150024414062 541.900024414062 541.789978027344 541.780029296875 541.609985351562 541.580017089844 541.619995117188 541.570007324219 541.640014648438 541.299987792969 540.640014648438 540.130004882812 539.760009765625 539.489990234375 539.039978027344 538.859985351562 538.690002441406 538.609985351562 538.469970703125 538.330017089844 538.289978027344 538.289978027344 538.25 538.25 538.25 538.299987792969 538.289978027344 538.299987792969 538.27001953125 538.320007324219 538.390014648438 538.390014648438 538.400024414062 538.450012207031 538.5 538.530029296875 538.580017089844 538.599975585938 538.619995117188 538.659973144531
543.22998046875 543.219970703125 543.210021972656 543.119995117188 543.049987792969 542.849975585938 542.72998046875 542.630004882812 542.419982910156 542.22998046875 541.849975585938 541.559997558594 541.510009765625 541.369995117188 541.130004882812 541.099975585938 540.919982910156 540.75 540.409973144531 539.960021972656 539.570007324219 539.299987792969 539.059997558594 538.809997558594 538.619995117188 538.450012207031 538.320007324219 538.27001953125 538.219970703125 538.239990234375 538.200012207031 538.210021972656 538.22998046875 538.239990234375 538.27001953125 538.27001953125 538.299987792969 538.320007324219 538.369995117188 538.419982910156 538.409973144531 538.429992675781 538.429992675781 538.489990234375 538.580017089844 538.590026855469 538.619995117188 538.650024414062 538.690002441406 538.72998046875
543.210021972656 543.179992675781 543.130004882812 542.989990234375 542.760009765625 542.599975585938 542.47998046875 542.349975585938 542.159973144531 541.900024414062 541.570007324219 541.369995117188 541.27001953125 541.039978027344 540.679992675781 540.429992675781 540.150024414062 539.890014648438 539.659973144531 539.27001953125 538.919982910156 538.780029296875 538.580017089844 538.380004882812 538.239990234375 538.179992675781 538.099975585938 538.070007324219 538.099975585938 538.140014648438 538.200012207031 538.22998046875 538.25 538.289978027344 538.320007324219 538.330017089844 538.359985351562 538.429992675781 538.419982910156 538.460021972656 538.47998046875 538.510009765625 538.559997558594 538.570007324219 538.609985351562 538.690002441406 538.679992675781 538.719970703125 538.739990234375 538.809997558594
543.099975585938 542.969970703125 542.780029296875 542.619995117188 542.440002441406 542.309997558594 542.200012207031 542.030029296875 541.809997558594 541.590026855469 541.340026855469 541.070007324219 541.080017089844 540.77001953125 540.369995117188 540.02001953125 539.719970703125 539.400024414062 539.169982910156 538.880004882812 538.650024414062 538.409973144531 538.260009765625 538.109985351562 538.030029296875 537.900024414062 537.919982910156 538.02001953125 538.109985351562 538.190002441406 538.200012207031 538.260009765625 538.320007324219 538.369995117188 538.380004882812 538.390014648438 538.400024414062 538.419982910156 538.489990234375 538.559997558594 538.549987792969 538.580017089844 538.630004882812 538.619995117188 538.669982910156 538.75 538.77001953125 538.710021972656 538.820007324219 538.869995117188
542.859985351562 542.650024414062 542.429992675781 542.25 542.260009765625 541.97998046875 541.830017089844 541.609985351562 541.349975585938 541.059997558594 540.75 540.830017089844 540.72998046875 540.469970703125 540.070007324219 539.650024414062 539.419982910156 539.219970703125 538.900024414062 538.659973144531 538.289978027344 538.099975585938 537.960021972656 537.900024414062 537.840026855469 537.840026855469 537.950012207031 538.059997558594 538.169982910156 538.25 538.309997558594 538.390014648438 538.429992675781 538.469970703125 538.429992675781 538.460021972656 538.5 538.530029296875 538.52001953125 538.559997558594 538.52001953125 538.640014648438 538.640014648438 538.690002441406 538.739990234375 538.789978027344 538.820007324219 538.809997558594 538.840026855469 538.840026855469
542.590026855469 542.359985351562 542.059997558594 541.929992675781 541.72998046875 541.559997558594 541.330017089844 541.109985351562 540.619995117188 540.369995117188 540.299987792969 540.419982910156 540.150024414062 539.799987792969 539.440002441406 539.22998046875 538.960021972656 538.619995117188 538.330017089844 538.049987792969 537.929992675781 537.809997558594 537.72998046875 537.739990234375 537.809997558594 537.900024414062 538.049987792969 538.190002441406 538.260009765625 538.349975585938 538.390014648438 538.409973144531 538.47998046875 538.469970703125 538.429992675781 538.419982910156 538.52001953125 538.570007324219 538.590026855469 538.510009765625 538.539978027344 538.690002441406 538.669982910156 538.690002441406 538.830017089844 538.830017089844 538.820007324219 538.830017089844 538.820007324219 538.859985351562
542.289978027344 542.02001953125 541.780029296875 541.450012207031 541.159973144531 540.940002441406 540.530029296875 540.179992675781 540.010009765625 539.919982910156 539.940002441406 539.830017089844 539.47998046875 539.239990234375 538.859985351562 538.580017089844 538.200012207031 538.030029296875 537.849975585938 537.780029296875 537.659973144531 537.599975585938 537.690002441406 537.739990234375 537.890014648438 538.030029296875 538.169982910156 538.299987792969 538.359985351562 538.409973144531 538.489990234375 538.559997558594 538.52001953125 538.530029296875 538.429992675781 538.349975585938 538.450012207031 538.549987792969 538.590026855469 538.539978027344 538.640014648438 538.719970703125 538.690002441406 538.760009765625 538.820007324219 538.840026855469 538.880004882812 538.859985351562 538.859985351562 538.909973144531
541.909973144531 541.630004882812 541.450012207031 540.940002441406 540.570007324219 540.260009765625 539.929992675781 539.780029296875 539.650024414062 539.690002441406 539.510009765625 539.150024414062 538.830017089844 538.549987792969 538.280029296875 538.059997558594 537.890014648438 537.760009765625 537.659973144531 537.599975585938 537.52001953125 537.549987792969 537.659973144531 537.830017089844 538.02001953125 538.190002441406 538.289978027344 538.390014648438 538.450012207031 538.530029296875 538.570007324219 538.590026855469 538.580017089844 538.5 538.5 538.429992675781 538.5 538.549987792969 538.52001953125 538.609985351562 538.690002441406 538.72998046875 538.789978027344 538.840026855469 538.809997558594 538.869995117188 538.919982910156 538.909973144531 538.919982910156 538.969970703125
541.469970703125 541.440002441406 541.030029296875 540.530029296875 540.179992675781 539.890014648438 539.650024414062 539.489990234375 539.380004882812 539.200012207031 538.969970703125 538.570007324219 538.25 538.049987792969 538.010009765625 537.830017089844 537.739990234375 537.570007324219 537.469970703125 537.429992675781 537.450012207031 537.52001953125 537.710021972656 538 538.159973144531 538.289978027344 538.390014648438 538.460021972656 538.510009765625 538.559997558594 538.580017089844 538.580017089844 538.590026855469 538.539978027344 538.510009765625 538.559997558594 538.539978027344 538.580017089844 538.630004882812 538.75 538.780029296875 538.820007324219 538.849975585938 538.890014648438 538.900024414062 538.97998046875 538.969970703125 538.969970703125 538.989990234375 538.989990234375
541.049987792969 540.880004882812 540.47998046875 540.109985351562 539.820007324219 539.570007324219 539.429992675781 539.219970703125 538.940002441406 538.700012207031 538.390014648438 538.130004882812 537.989990234375 537.890014648438 537.880004882812 537.690002441406 537.640014648438 537.510009765625 537.440002441406 537.390014648438 537.440002441406 537.630004882812 537.880004882812 538.090026855469 538.22998046875 538.359985351562 538.440002441406 538.489990234375 538.539978027344 538.580017089844 538.580017089844 538.590026855469 538.630004882812 538.650024414062 538.640014648438 538.659973144531 538.609985351562 538.640014648438 538.700012207031 538.780029296875 538.869995117188 538.830017089844 538.909973144531 538.940002441406 539.02001953125 539.039978027344 539.010009765625 539.010009765625 539 539
540.640014648438 540.289978027344 539.989990234375 539.659973144531 539.460021972656 539.309997558594 539.179992675781 538.739990234375 538.489990234375 538.260009765625 538.059997558594 537.950012207031 537.77001953125 537.659973144531 537.669982910156 537.570007324219 537.530029296875 537.440002441406 537.369995117188 537.359985351562 537.52001953125 537.72998046875 538.039978027344 538.150024414062 538.359985351562 538.469970703125 538.570007324219 538.570007324219 538.539978027344 538.559997558594 538.599975585938 538.619995117188 538.650024414062 538.679992675781 538.679992675781 538.690002441406 538.710021972656 538.75 538.789978027344 538.830017089844 538.909973144531 538.940002441406 539.010009765625 539.030029296875 539.02001953125 539 539.02001953125 539 538.97998046875 538.929992675781
540.359985351562 539.950012207031 539.510009765625 539.27001953125 539.130004882812 538.969970703125 538.650024414062 538.409973144531 538.210021972656 538.070007324219 537.940002441406 537.830017089844 537.700012207031 537.599975585938 537.539978027344 537.530029296875 537.419982910156 537.400024414062 537.369995117188 537.460021972656 537.630004882812 537.909973144531 538.119995117188 538.22998046875 538.380004882812 538.530029296875 538.619995117188 538.590026855469 538.599975585938 538.630004882812 538.659973144531 538.690002441406 538.679992675781 538.710021972656 538.679992675781 538.700012207031 538.760009765625 538.849975585938 538.880004882812 538.929992675781 538.919982910156 538.940002441406 539.030029296875 539.080017089844 539.039978027344 539.039978027344 539.049987792969 539 538.929992675781 538.909973144531
539.909973144531 539.559997558594 539.219970703125 538.859985351562 538.710021972656 538.549987792969 538.390014648438 538.190002441406 538.150024414062 538.030029296875 537.859985351562 537.760009765625 537.669982910156 537.5 537.450012207031 537.450012207031 537.440002441406 537.419982910156 537.510009765625 537.690002441406 537.900024414062 538.02001953125 538.109985351562 538.260009765625 538.419982910156 538.450012207031 538.580017089844 538.630004882812 538.650024414062 538.690002441406 538.700012207031 538.72998046875 538.75 538.780029296875 538.780029296875 538.840026855469 538.890014648438 538.900024414062 538.940002441406 539 539.010009765625 539.010009765625 539.049987792969 539 539.039978027344 539.030029296875 539.030029296875 539 538.940002441406 538.919982910156
539.489990234375 539.119995117188 538.840026855469 538.609985351562 538.450012207031 538.349975585938 538.289978027344 538.210021972656 538.080017089844 537.960021972656 537.809997558594 537.640014648438 537.489990234375 537.400024414062 537.419982910156 537.419982910156 537.549987792969 537.669982910156 537.830017089844 537.969970703125 538.059997558594 538.090026855469 538.190002441406 538.299987792969 538.400024414062 538.450012207031 538.619995117188 538.669982910156 538.690002441406 538.700012207031 538.72998046875 538.77001953125 538.799987792969 538.849975585938 538.880004882812 538.919982910156 538.929992675781 538.909973144531 538.929992675781 539.030029296875 539.049987792969 539.080017089844 539.030029296875 538.989990234375 539 539.010009765625 539.010009765625 538.969970703125 538.989990234375 539.010009765625
539.02001953125 538.590026855469 538.440002441406 538.280029296875 538.25 538.27001953125 538.219970703125 538.200012207031 538.109985351562 537.97998046875 537.780029296875 537.590026855469 537.5 537.419982910156 537.409973144531 537.530029296875 537.77001953125 537.940002441406 538.080017089844 538.169982910156 538.239990234375 538.289978027344 538.330017089844 538.369995117188 538.460021972656 538.650024414062 538.700012207031 538.690002441406 538.72998046875 538.739990234375 538.789978027344 538.820007324219 538.859985351562 538.890014648438 538.880004882812 538.890014648438 538.919982910156 538.880004882812 539.039978027344 539.109985351562 539.049987792969 539.080017089844 539.049987792969 539.02001953125 539.039978027344 539.030029296875 539.039978027344 539.039978027344 539.059997558594 539.090026855469
538.590026855469 538.330017089844 538.109985351562 538.030029296875 538.109985351562 538.22998046875 538.27001953125 538.200012207031 538.179992675781 538.039978027344 537.880004882812 537.690002441406 537.580017089844 537.510009765625 537.590026855469 537.77001953125 537.929992675781 538.109985351562 538.140014648438 538.349975585938 538.409973144531 538.450012207031 538.489990234375 538.5 538.619995117188 538.679992675781 538.710021972656 538.75 538.799987792969 538.830017089844 538.840026855469 538.909973144531 538.950012207031 538.940002441406 538.929992675781 538.960021972656 539 538.97998046875 539.02001953125 539.070007324219 539.119995117188 539.130004882812 539.090026855469 539.090026855469 539.109985351562 539.130004882812 539.070007324219 539.099975585938 539.119995117188 539.140014648438
538.280029296875 538.030029296875 537.840026855469 537.809997558594 538.049987792969 538.260009765625 538.280029296875 538.239990234375 538.190002441406 538.099975585938 537.97998046875 537.880004882812 537.820007324219 537.830017089844 537.900024414062 538.010009765625 538.130004882812 538.27001953125 538.400024414062 538.450012207031 538.47998046875 538.539978027344 538.549987792969 538.710021972656 538.700012207031 538.710021972656 538.75 538.77001953125 538.820007324219 538.869995117188 538.909973144531 538.909973144531 538.909973144531 538.950012207031 539.010009765625 539.030029296875 539.030029296875 539.030029296875 539.039978027344 539.070007324219 539.150024414062 539.119995117188 539.119995117188 539.159973144531 539.200012207031 539.239990234375 539.25 539.239990234375 539.239990234375 539.219970703125
538 537.789978027344 537.710021972656 537.900024414062 538.140014648438 538.299987792969 538.340026855469 538.320007324219 538.22998046875 538.179992675781 538.119995117188 538.099975585938 538.159973144531 538.159973144531 538.150024414062 538.210021972656 538.369995117188 538.47998046875 538.489990234375 538.47998046875 538.570007324219 538.599975585938 538.659973144531 538.72998046875 538.710021972656 538.75 538.799987792969 538.840026855469 538.859985351562 538.890014648438 538.909973144531 538.909973144531 538.950012207031 538.969970703125 539 539.010009765625 539.010009765625 539.039978027344 539.049987792969 539.090026855469 539.140014648438 539.169982910156 539.190002441406 539.25 539.289978027344 539.320007324219 539.400024414062 539.380004882812 539.340026855469 539.299987792969
537.989990234375 537.849975585938 537.840026855469 537.989990234375 538.22998046875 538.369995117188 538.460021972656 538.429992675781 538.320007324219 538.27001953125 538.280029296875 538.280029296875 538.320007324219 538.340026855469 538.380004882812 538.469970703125 538.489990234375 538.549987792969 538.549987792969 538.539978027344 538.609985351562 538.669982910156 538.700012207031 538.700012207031 538.739990234375 538.780029296875 538.809997558594 538.900024414062 538.890014648438 538.960021972656 538.960021972656 538.960021972656 538.960021972656 538.940002441406 539 539.049987792969 539.039978027344 539.030029296875 539.119995117188 539.119995117188 539.140014648438 539.190002441406 539.280029296875 539.400024414062 539.359985351562 539.419982910156 539.419982910156 539.419982910156 539.390014648438 539.380004882812
538 537.940002441406 537.900024414062 538.090026855469 538.289978027344 538.450012207031 538.530029296875 538.469970703125 538.409973144531 538.390014648438 538.419982910156 538.460021972656 538.5 538.559997558594 538.599975585938 538.590026855469 538.549987792969 538.630004882812 538.590026855469 538.609985351562 538.669982910156 538.710021972656 538.75 538.72998046875 538.809997558594 538.869995117188 538.900024414062 538.929992675781 538.960021972656 539 539 538.97998046875 538.950012207031 538.97998046875 539 539.039978027344 539.070007324219 539.099975585938 539.140014648438 539.159973144531 539.239990234375 539.330017089844 539.380004882812 539.440002441406 539.460021972656 539.419982910156 539.419982910156 539.400024414062 539.380004882812 539.429992675781
538.090026855469 538.02001953125 538.02001953125 538.140014648438 538.340026855469 538.559997558594 538.580017089844 538.590026855469 538.510009765625 538.539978027344 538.52001953125 538.559997558594 538.590026855469 538.659973144531 538.609985351562 538.590026855469 538.599975585938 538.609985351562 538.599975585938 538.630004882812 538.679992675781 538.75 538.820007324219 538.859985351562 538.859985351562 538.909973144531 538.919982910156 538.97998046875 539.049987792969 539.02001953125 539.02001953125 539.049987792969 539.049987792969 539.049987792969 539.059997558594 539.150024414062 539.190002441406 539.150024414062 539.190002441406 539.280029296875 539.309997558594 539.400024414062 539.409973144531 539.409973144531 539.429992675781 539.390014648438 539.359985351562 539.359985351562 539.419982910156 539.47998046875
538.119995117188 538.090026855469 538.049987792969 538.169982910156 538.340026855469 538.630004882812 538.690002441406 538.640014648438 538.650024414062 538.669982910156 538.640014648438 538.609985351562 538.669982910156 538.650024414062 538.619995117188 538.609985351562 538.580017089844 538.580017089844 538.599975585938 538.690002441406 538.710021972656 538.859985351562 538.859985351562 538.869995117188 538.940002441406 538.969970703125 538.960021972656 538.950012207031 539 539.049987792969 539.059997558594 539.039978027344 539.140014648438 539.179992675781 539.25 539.280029296875 539.27001953125 539.25 539.27001953125 539.320007324219 539.349975585938 539.400024414062 539.400024414062 539.409973144531 539.390014648438 539.289978027344 539.309997558594 539.380004882812 539.429992675781 539.549987792969
538.140014648438 538.109985351562 538.150024414062 538.219970703125 538.409973144531 538.760009765625 538.77001953125 538.719970703125 538.760009765625 538.77001953125 538.719970703125 538.700012207031 538.690002441406 538.659973144531 538.659973144531 538.580017089844 538.559997558594 538.599975585938 538.659973144531 538.710021972656 538.799987792969 538.869995117188 538.840026855469 538.909973144531 539.010009765625 539.059997558594 539.059997558594 539.02001953125 539.049987792969 539.070007324219 539.02001953125 539.059997558594 539.190002441406 539.260009765625 539.309997558594 539.320007324219 539.280029296875 539.299987792969 539.330017089844 539.359985351562 539.380004882812 539.409973144531 539.400024414062 539.390014648438 539.320007324219 539.330017089844 539.349975585938 539.359985351562 539.460021972656 539.489990234375
538.159973144531 538.159973144531 538.200012207031 538.260009765625 538.489990234375 538.780029296875 538.900024414062 538.809997558594 538.799987792969 538.739990234375 538.690002441406 538.679992675781 538.700012207031 538.669982910156 538.619995117188 538.599975585938 538.609985351562 538.669982910156 538.72998046875 538.799987792969 538.880004882812 538.849975585938 538.909973144531 538.97998046875 539.070007324219 539.080017089844 539.070007324219 539.109985351562 539.150024414062 539.159973144531 539.179992675781 539.190002441406 539.210021972656 539.239990234375 539.320007324219 539.309997558594 539.330017089844 539.359985351562 539.380004882812 539.340026855469 539.380004882812 539.380004882812 539.369995117188 539.349975585938 539.309997558594 539.369995117188 539.400024414062 539.419982910156 539.429992675781 539.460021972656
538.239990234375 538.190002441406 538.190002441406 538.25 538.5 538.72998046875 538.869995117188 538.820007324219 538.849975585938 538.700012207031 538.690002441406 538.630004882812 538.669982910156 538.659973144531 538.619995117188 538.630004882812 538.679992675781 538.719970703125 538.780029296875 538.859985351562 538.880004882812 538.900024414062 538.97998046875 539.030029296875 539.090026855469 539.150024414062 539.179992675781 539.169982910156 539.219970703125 539.25 539.239990234375 539.27001953125 539.27001953125 539.25 539.280029296875 539.340026855469 539.369995117188 539.390014648438 539.409973144531 539.409973144531 539.380004882812 539.390014648438 539.369995117188 539.390014648438 539.409973144531 539.429992675781 539.460021972656 539.469970703125 539.510009765625 539.559997558594
