ncols         80
nrows         122
xllcorner     361015.59563119
yllcorner     70223.434086869
cellsize      10
NODATA_value  -9999
479.9628 483.2985 486.8237 489.1225 488.8954 487.3076 486.5923 487.4199 489.1837 493.4364 499.4862 507.5273 514.1489 519.4706 524.0156 528.2371 533.0765 538.0574 544.8242 552.892 561.4244 568.1665 573.871 578.8345 581.6272 582.3846 582.1506 581.0375 578.8264 576.5563 574.0062 571.2361 568.8469 566.8584 564.8173 562.6889 560.6689 558.8773 556.276 553.912 552.6062 551.4231 551.4166 551.538 551.8282 552.1262 551.5091 550.7969 549.7536 548.1777 546.6951 545.5262 544.3682 543.1169 541.39 539.1221 536.7441 534.9187 533.1987 531.0359 529.1487 527.2892 525.4595 523.6025 521.854 520.2748 518.7528 517.4071 516.1029 514.4305 512.8 511.0612 509.1088 507.3761 505.5714 503.786 501.929 500.3177 498.9857 -9999
477.9914 481.6911 485.5529 487.9347 487.7563 486.4839 484.8714 485.8088 488.7002 494.1163 500.7962 510.0783 518.0472 523.8083 528.6494 532.8778 536.5768 540.485 546.6574 553.2502 559.6769 565.5428 570.7354 575.4883 578.2769 579.5313 579.5701 578.6738 577.0029 574.9882 572.8774 570.6119 568.0302 565.926 563.6966 561.6426 559.6974 557.5598 555.1315 552.6768 551.4563 550.6677 550.5735 550.7629 550.8137 551.3663 550.8051 549.8814 548.6577 547.2162 545.5455 543.9102 542.8651 541.5599 539.8356 537.709 535.3803 533.5667 532.0872 530.3472 528.5237 526.8342 525.2245 523.6301 522.188 521.3176 520.1187 517.9409 515.8359 513.7695 512.1199 510.5478 508.7363 507.1826 505.326 503.4543 501.7088 500.0886 498.5723 -9999
475.941 479.8842 483.9155 486.1874 485.7678 484.7741 482.7025 484.1846 488.8625 494.6397 502.2123 509.6692 517.0529 522.7133 527.1104 530.8879 535.1154 539.3746 544.0993 549.6216 555.4493 561.5173 567.5475 572.5054 575.0297 576.4302 576.7891 576.3305 575.2117 573.5869 571.7254 569.5479 567.2593 564.9296 562.7906 560.8813 558.647 556.3376 553.9427 551.7673 550.2029 549.7442 549.0048 550.0695 550.0687 550.5549 550.0934 548.9976 547.8473 546.102 544.3214 542.6028 541.395 540.0491 538.293 536.2821 534.1457 532.156 530.424 528.8217 527.3461 526.0341 524.8551 523.7094 522.2453 521.08 519.7729 517.755 515.7684 513.7156 511.9694 510.1415 508.529 506.9035 505.2142 503.3488 501.6718 499.9927 498.321 -9999
473.9465 477.9695 481.5296 483.8612 483.5357 482.4435 481.0398 483.3188 488.843 494.633 502.248 509.009 514.6625 519.3297 523.0197 526.9028 531.0936 535.3229 539.7294 544.9373 551.0951 557.6862 564.3914 569.3217 571.6393 573.1934 573.9379 573.8671 573.2521 571.9681 570.3356 568.4297 566.3572 564.1351 562.1768 560.2231 558.0152 555.7024 553.2664 551.1868 549.6473 548.4679 547.4483 548.7548 549.4283 549.2375 549.2986 548.2257 546.6227 544.6023 542.7064 541.1419 539.6455 538.245 536.7531 534.8796 532.8193 530.9056 528.7935 526.7871 524.6324 523.2291 522.8026 521.8426 520.5879 519.4448 518.1724 516.815 515.2382 513.4863 511.6481 509.9086 508.0024 506.4728 504.619 502.5775 500.904 498.8344 496.4854 -9999
472.1779 475.726 478.8885 481.0426 481.0151 479.6107 479.2923 482.9166 488.6009 494.8692 501.6004 507.1266 511.5898 515.0842 518.6132 522.4197 526.5732 530.9719 535.835 541.2965 547.5693 554.1052 560.6041 565.3392 568.1543 569.9542 570.9376 571.2074 570.801 569.9932 568.8091 567.2864 565.3824 563.8229 562.0104 560.0704 557.6544 555.4151 553.2592 551.1544 549.2651 547.8286 546.317 546.4124 548.0728 547.7928 548.1848 547.171 545.5602 543.5118 541.4921 539.6902 537.8088 536.3036 535.0283 533.4376 531.5325 529.6959 527.2395 524.9802 522.7809 521.1493 520.0347 519.0958 518.2617 517.2914 516.1239 514.9366 513.5905 512.3212 510.7918 508.4173 506.9805 505.8384 504.1783 502.074 499.0573 496.9789 495.3551 -9999
470.368 473.2887 476.0724 478.3255 478.1929 476.6747 477.6797 482.7142 488.5905 494.7872 500.5474 504.9644 507.9942 510.6852 514.389 518.5599 522.9242 527.587 532.9475 538.4775 544.6802 550.8796 556.373 560.7012 564.2339 566.8447 568.0986 568.7778 568.7941 568.3047 567.3304 566.1196 564.8195 563.8087 561.9309 559.7863 557.7611 555.4912 553.3767 551.2719 549.3364 547.4857 545.5021 544.5151 546.4243 546.4139 546.0697 545.504 544.1052 542.1615 540.0884 538.2888 536.519 534.827 533.3619 532.2883 530.5884 528.8923 526.3954 524.1937 522.0373 519.8556 518.0156 516.7599 516.0992 515.1471 513.8569 512.567 511.1874 510.0425 508.445 507.0852 505.5594 503.8756 502.2015 500.0891 498.3231 496.1561 493.2169 -9999
468.1228 470.806 473.4187 475.5336 475.7426 474.2531 476.8812 482.8073 488.8696 494.0725 498.368 501.1617 503.5781 506.9644 511.6932 516.618 521.3062 525.5696 530.0414 535.7031 541.8739 547.1613 551.8388 555.9139 559.9683 563.6431 565.6864 566.7313 567.0107 566.7458 566.041 565.2889 564.4333 563.392 561.717 559.9865 557.8388 555.5651 553.4326 551.7685 549.637 547.4867 545.1302 542.933 542.9856 544.2395 544.1094 543.5635 542.6255 541.0442 539.2033 537.4532 535.7986 534.028 532.405 531.0365 529.8236 527.958 526.0657 524.0614 521.7443 519.4905 517.1259 515.5151 514.2088 512.8821 511.7867 510.2811 509.0823 508.9105 506.9094 506.1299 503.912 501.5238 500.614 499.6898 498.6053 495.1569 492.2125 -9999
465.6303 468.2573 470.7092 472.5335 472.7908 472.2942 476.8074 482.683 488.0135 491.9877 494.5851 496.744 500.2538 505.5417 511.6655 517.3392 521.8591 525.5038 528.653 533.2739 538.6699 543.157 547.4088 551.8535 556.1514 560.1447 563.2686 564.9972 565.6296 565.5642 565.1548 564.7183 564.1578 563.0067 561.5216 559.7637 557.8571 555.7259 553.3863 551.761 549.9689 547.7153 545.2645 542.1623 540.4066 541.6584 542.5852 541.5722 540.5109 539.0704 537.7242 535.948 534.4492 532.9122 531.6633 530.3466 528.7953 527.3195 525.5427 523.474 521.3714 519.3356 517.1959 515.113 513.5661 511.903 510.4597 509.5779 507.5817 506.8641 505.5663 504.4023 502.5613 501.4713 500.7162 499.0047 496.7614 494.2263 493.326 -9999
462.9546 465.3367 467.4626 468.1096 469.316 471.9295 476.6214 481.487 485.5994 488.1781 490.1279 493.4534 498.8699 505.3332 511.9323 516.898 520.913 524.3022 527.6514 531.6224 535.534 539.5606 543.7707 548.0696 552.4255 556.6398 560.6566 563.1755 564.2283 564.5317 564.5914 564.4006 563.9904 562.9682 561.4261 559.7641 557.7801 555.782 553.4904 551.7435 549.8395 547.6565 545.0143 541.7648 538.7887 538.3331 540.0116 540.3438 538.8876 537.4972 535.9326 534.4421 532.7997 531.2437 529.8248 528.7137 527.6443 526.2714 524.6303 522.9536 520.9437 519.1611 517.2389 515.3765 513.5715 511.7716 510.24 508.6013 507.2121 505.727 504.2411 503.1232 502.5435 501.4525 499.5696 497.2927 496.1125 495.5529 495.5291 -9999
459.4116 460.3275 462.9395 465.2005 469.2773 472.3013 475.4884 478.5688 481.3057 483.6311 486.9161 492.1255 498.192 505.0866 510.2761 514.3578 517.7602 521.1052 524.5477 528.1849 532.0237 536.2557 540.5129 544.6674 548.8563 553.5009 558.1627 561.289 563.1509 563.7334 564.2076 564.3651 563.9181 563.0613 561.3666 559.5419 557.6752 555.5804 553.6382 551.4282 549.25 547.1328 544.7401 541.4742 537.7886 536.2678 536.7397 537.2322 536.8212 536.4252 535.046 533.2622 532.0966 531.085 528.9924 527.4729 526.1406 524.8326 523.8464 522.5713 520.7814 519.012 517.2079 515.1835 513.5083 511.7385 510.198 508.5336 506.5774 505.0947 503.9269 503.0957 501.8373 500.1698 498.7537 498.3423 498.3183 498.1258 498.2258 -9999
455.0507 455.7331 460.3307 465.4214 468.7017 470.6194 472.3439 474.462 477.4398 481.5676 486.7302 491.8839 497.7397 503.201 507.0789 510.8081 514.2639 517.4994 521.0336 524.7183 528.8476 532.9391 537.235 541.2471 545.7301 550.8744 555.9196 559.8478 562.0587 563.1842 563.9553 564.1265 563.8145 562.9583 561.5129 559.9037 558.0371 555.6758 553.2508 550.9568 548.7275 546.2558 544.2911 541.7251 537.9761 535.261 534.0102 533.4623 533.6012 533.564 532.7747 531.5775 530.4552 529.3092 527.8027 526.9902 525.6997 523.6239 522.6019 521.7712 520.1943 518.6941 517.0087 515.0546 513.3232 511.8625 510.3287 508.1199 506.4857 505.3499 504.0703 502.8408 502.0048 501.4239 501.0042 500.9087 500.9638 501.2751 501.452 -9999
450.4686 454.235 458.8327 462.4167 465.1646 467.0342 468.7819 472.0414 476.6964 481.6695 486.3063 490.9288 495.7796 499.8854 503.3794 506.9772 510.3857 513.7477 517.3668 521.2061 525.3836 529.3777 533.6494 538.0032 542.8929 548.3038 554.1588 558.5887 561.1704 562.5405 563.4438 563.7363 563.4324 562.6492 561.4164 559.7682 558.0194 555.5392 552.9513 550.461 548.1111 545.6797 543.6701 541.4904 538.4333 535.481 532.9929 531.0693 530.4985 530.6729 530.3319 530.0767 528.7444 527.2463 525.9398 524.6075 524.3358 522.5404 521.3066 520.3886 519.554 518.3047 516.9082 515.1313 513.4856 511.7028 509.5197 508.1667 506.7353 505.5305 504.5917 504.1685 504.1028 504.1053 504.0794 504.2825 504.8397 505.3952 505.5737 -9999
447.0177 451.1403 455.156 457.8988 460.4471 463.4555 467.1006 471.6941 476.3091 480.2527 484.2792 488.4229 492.3574 495.9193 499.291 503.0789 506.5349 509.9686 513.6243 517.6082 521.796 525.8546 530.0734 534.5806 540.0081 545.5879 551.7133 556.9321 559.9756 561.2921 562.2417 562.552 562.4719 561.8798 560.6911 559.0081 557.1152 554.8604 552.0944 549.9896 547.5837 545.1667 543.1647 541.3676 538.8353 536.2264 533.735 531.111 528.7213 527.4624 527.1975 526.8434 526.1636 525.0486 523.7341 522.3524 521.6215 520.3535 519.8221 519.0132 517.9988 516.9293 515.7122 514.4468 512.9965 511.4246 510.221 509.0446 507.1791 506.3969 506.5781 506.708 506.9134 507.2823 507.6603 508.4841 509.2197 509.6694 509.7587 -9999
443.8998 447.7761 451.238 453.5351 457.2592 462.002 465.9653 470.0538 473.8715 477.431 481.1346 484.7656 488.2813 491.7721 495.1786 499.0903 502.6025 506.3544 510.2951 514.2977 518.5095 522.4706 526.7444 531.667 537.0721 542.981 548.8105 554.2272 557.856 559.7208 560.8145 561.3122 561.2342 560.6665 559.5455 557.8809 555.8579 553.7003 551.3666 548.8553 546.7081 544.4224 542.5363 540.6884 538.5805 536.2605 534.0955 532.1515 529.749 527.3893 525.3347 523.9103 522.9868 521.845 520.312 519.3066 519.024 518.4598 518.0361 517.7632 516.7654 515.7473 514.6277 513.6313 512.8308 512.0074 510.668 509.3185 508.4463 508.4909 509.1205 509.7169 510.1298 510.9553 511.6705 512.7217 513.6984 514.246 513.7838 -9999
439.9514 444.0529 446.9576 449.9804 455.0472 459.7971 463.5596 466.9708 470.5535 473.9373 476.9304 480.1975 483.5809 487.1295 490.9401 495.3771 499.297 502.9288 506.9552 511.1529 515.2563 519.2532 523.7809 528.9633 534.6362 540.0814 545.2848 550.3512 554.8291 557.5006 558.9781 559.5906 559.5886 559.106 558.1211 556.5099 554.5847 552.4308 550.0612 547.8907 545.4382 543.4515 541.4173 539.7771 537.6847 535.7383 533.9576 531.8238 530.1183 528.3941 526.4539 524.0443 521.9935 520.3235 518.6063 516.9277 516.3578 516.2212 516.1817 516.2081 515.4299 514.8754 513.4854 512.9822 512.7175 511.4449 510.7517 510.3625 510.5173 511.2302 512.117 512.942 513.8048 514.9304 516.0767 517.4654 518.4016 518.4471 517.4589 -9999
435.8224 440.1268 443.3768 447.536 453.1363 457.2773 460.5345 463.7687 467.1552 469.9752 472.2377 475.2417 478.6465 482.5032 487.2609 492.0707 495.9722 499.7598 503.964 508.0733 512.0443 516.3016 521.178 526.6281 531.7324 535.8522 539.6639 543.4298 548.0525 553.4871 556.2087 557.1797 557.4656 557.1545 556.3415 554.9976 553.0076 550.9305 548.6267 546.2719 544.0107 541.9162 540.0405 538.2268 536.4889 534.7322 532.8792 531.2004 529.8346 528.2704 526.6317 524.8519 523.0297 521.0952 519.3455 517.1824 515.1671 514.1613 513.8149 514.1598 514.119 513.6197 513.0221 513.3895 512.0707 511.8237 511.8246 512.2953 513.1666 513.9703 515.0848 516.2539 517.6296 519.1765 520.7877 522.4857 523.3252 522.5974 520.916 -9999
431.9973 436.8768 441.1101 446.7151 451.8604 454.6217 457.2648 460.3296 463.5284 465.9503 467.7046 470.3038 473.6628 477.9653 483.4729 488.8282 493.0987 497.1998 501.1739 505.1667 509.3397 513.9097 518.6838 523.5525 527.6285 530.8282 533.3249 535.2655 538.1605 545.7965 551.9975 554.0974 554.8917 554.9952 554.3966 553.1397 551.1827 549.0357 546.9851 544.9304 542.6068 540.3358 538.563 536.8202 535.2251 533.5055 531.6578 530.0063 528.7469 527.7578 526.4905 524.7685 523.3734 521.2114 519.4628 517.4629 515.1804 513.6254 512.5587 512.6335 512.9908 512.9607 512.519 512.1935 512.5286 512.8376 513.5055 514.4687 515.5781 516.5131 517.9221 519.4838 521.2318 523.3898 525.3629 527.0166 527.3723 526.2636 524.0643 -9999
429.0244 435.1018 440.8991 445.8751 449.447 451.5608 453.9582 456.8318 459.3779 461.5337 463.2177 465.0314 468.4925 473.9592 480.381 486.2172 490.7882 494.847 498.5286 502.1937 506.1982 510.8817 515.2529 519.6428 523.2326 525.6125 526.217 527.9255 530.8787 535.6249 545.1047 550.4802 552.199 552.5277 552.0386 550.9803 549.3636 547.3537 545.0975 542.951 540.5126 538.3531 536.6047 535.0054 533.4023 531.758 529.9039 528.3848 527.5116 526.6027 525.4482 523.8242 522.3309 520.343 518.3951 516.6721 514.9819 513.2053 511.8951 511.3546 511.7359 512.274 512.4644 512.8626 513.6697 514.56 515.7345 516.9297 518.0818 519.1824 520.8615 523.027 525.3516 527.6136 529.783 531.2634 531.4451 530.0538 527.6896 -9999
428.3089 434.8394 440.2843 444.0369 446.4263 448.4884 450.4331 452.8804 455.1443 457.0722 458.9126 461.2838 465.2524 471.7237 478.1256 483.5483 487.7868 492.0188 495.8389 499.4962 503.204 507.5823 511.4145 515.141 518.1853 519.4103 518.8835 520.6855 524.2274 528.6603 534.6516 544.5801 549.1592 550.0681 549.6719 548.9695 547.3704 545.3412 543.0929 540.6375 538.1328 536.231 534.3658 532.9628 531.3291 529.6683 527.9231 526.4954 525.51 524.728 523.8066 522.2366 520.7399 518.7414 516.9205 515.361 514.1949 512.7638 511.096 510.1021 510.7328 511.9455 512.8962 513.8733 515.207 516.5726 518.0702 519.1676 520.4392 521.8741 524.0913 526.6293 529.0296 531.6431 533.9044 535.1649 535.1086 534.0098 531.0891 -9999
430.0226 435.1352 439.0477 441.5584 443.3198 445.1098 446.8717 448.744 450.6555 452.5284 454.9676 458.9443 464.436 470.4638 476.1438 480.9966 485.0775 488.9966 492.9507 496.5433 500.0169 503.7774 507.1126 510.0358 511.9836 511.4876 511.9974 514.5508 518.2703 523.3539 528.8433 536.7158 544.8839 546.4606 547.2058 546.822 545.2568 543.1589 540.9416 538.4905 536.0486 534.0101 532.2509 530.6534 529.1127 527.3289 525.7664 524.2321 523.1834 522.321 521.4825 520.0225 518.3801 516.6588 515.1494 513.7311 513.1415 512.1603 510.2293 508.7606 509.6613 512.2063 513.9571 515.8225 517.5206 519.1054 520.3833 521.7028 523.047 524.9678 527.4364 530.2726 532.9319 535.6049 537.8134 538.6887 538.6226 537.475 534.7578 -9999
431.261 434.5215 436.9023 438.6587 440.1489 441.5134 442.8089 444.4401 446.0271 448.4792 453.0605 458.7323 464.5382 469.5143 474.0851 478.2165 482.2238 486.0908 489.9325 493.2472 496.4696 499.6613 502.5853 505.1666 505.995 505.0093 505.8889 508.8379 512.7936 518.0525 523.8287 532.5388 539.2327 541.2453 543.6506 544.3439 542.9851 541.2064 539.0583 536.4789 533.9764 531.8708 530.1039 528.218 526.5342 525.1645 523.49 522.1488 520.8137 520.0276 519.068 517.5573 515.8353 514.3079 512.8489 512.0385 511.2388 510.5092 508.9822 507.4698 509.0985 512.3262 515.6075 518.264 520.3994 522.3098 523.6947 525.0406 526.4153 528.3574 530.837 533.9174 536.833 539.4854 541.1589 542.0045 541.8604 540.649 538.2621 -9999
430.0299 432.2773 433.687 434.8809 436.1151 437.1422 438.3668 439.3221 441.9551 447.8672 454.2722 459.6669 464.149 467.8124 471.3207 475.1089 478.9275 482.7736 486.5571 489.7264 492.6519 495.5755 498.1906 500.4024 500.5375 499.4659 500.5895 503.3229 507.5062 512.994 519.2783 528.2079 532.2026 534.3818 539.0369 541.3367 540.5674 539.2578 537.2037 534.7122 532.0735 529.7715 527.8563 525.9946 524.126 522.5356 521.241 519.8398 518.5188 517.3156 515.9023 514.5971 513.041 511.5558 510.7328 509.767 508.8195 507.8037 506.9004 506.7897 509.5881 513.6414 517.5941 520.5844 523.9211 526.2983 528.139 529.618 530.8847 532.6616 534.8403 537.8663 540.7382 543.1176 544.438 544.847 544.5396 543.598 541.6371 -9999
427.1179 428.3203 429.5957 430.8366 431.7511 432.4446 433.0238 435.8584 442.6752 449.7291 455.2462 459.4023 462.5556 465.3818 468.4043 471.806 475.3703 479.0316 482.7131 485.8087 488.5409 491.4311 493.7916 495.416 495.1588 494.3965 495.5414 498.3558 502.8836 508.9652 515.8953 519.0521 521.3154 526.1509 532.7203 537.1489 537.7622 536.8716 535.2281 532.7572 530.1547 527.7994 525.8077 523.9153 521.9585 520.6684 518.8265 517.3328 515.938 514.4424 512.9668 511.5381 509.9256 508.8801 508.2054 507.2516 505.9676 505.117 505.9448 508.1855 511.5997 515.6786 520.2335 523.8801 527.8951 530.9052 532.5919 534.1097 535.4542 537.1398 539.2775 541.6662 544.5809 546.6389 547.1896 547.1862 546.9494 546.3118 544.9387 -9999
423.5728 424.7655 426.0362 426.9556 427.0197 427.4202 431.0114 437.4648 444.1737 450.1207 454.5985 457.7472 460.2172 462.6949 465.2963 467.9754 470.8266 474.4163 478.2623 481.6978 484.4243 487.1714 489.2239 490.297 489.9643 489.1654 490.4678 493.9732 499.2443 506.1896 510.9491 511.7774 513.0074 518.0997 524.9236 531.8727 534.2034 534.0313 532.6039 530.5326 528.2618 526.1005 523.9285 521.8699 519.9973 518.1677 516.608 515.2316 513.3532 512.1761 510.5181 509.0354 507.8911 506.64 505.8328 504.9132 503.8949 504.9383 507.3187 510.6803 514.3944 518.6102 523.3716 527.8334 532.0876 535.2049 536.939 538.6282 540.2177 541.8829 543.9686 546.332 548.5242 549.6819 549.8603 549.3578 548.849 548.3412 547.4001 -9999
419.6264 420.9276 422.2335 422.3817 422.0286 425.8005 433.2947 439.8153 445.0349 449.5217 452.8929 455.3998 457.5594 459.7771 461.4673 462.8724 465.4618 469.3462 473.6602 477.3971 480.2781 482.7653 484.3632 484.9664 484.5551 484.2849 486.3282 490.9135 496.8326 502.754 505.1668 504.8444 506.2379 510.7265 515.9015 524.9454 529.5978 530.6202 529.5894 527.985 526.1647 524.1653 521.9718 519.8395 517.9286 516.1965 514.5508 512.7599 511.0523 509.6806 508.5494 507.4931 506.4766 505.4998 504.2264 502.9634 503.5258 506.2348 509.7342 513.7977 517.9175 522.186 526.7762 531.334 535.9601 538.9534 540.9119 542.9387 544.6604 546.6458 548.9958 550.9014 551.754 552.2076 551.5728 550.8048 550.0959 549.7208 548.9452 -9999
414.6886 416.2443 417.4052 417.3692 419.9555 427.07 434.4122 440.0356 444.3335 447.7131 450.5306 452.8347 454.9519 456.5646 456.8499 458.128 461.0731 464.7802 469.2358 473.214 476.342 478.3885 479.6046 479.6267 478.8057 479.1005 482.1514 487.6217 493.6991 498.2099 498.995 497.6718 499.2252 503.6987 507.5455 512.056 520.106 526.1136 526.195 525.2808 523.8594 521.889 519.856 517.9694 516.1572 514.6389 512.9977 510.9733 509.1228 507.9542 506.9212 506.0486 505.2235 504.4967 502.8274 502.1436 504.5519 508.1646 512.5397 517.4116 522.0522 526.429 530.3788 535.4562 539.6595 542.7999 544.7144 546.9587 548.4833 550.3532 552.4581 553.656 554.1641 554.0867 552.887 551.814 550.864 550.1486 549.2676 -9999
407.9364 410.2015 411.3903 413.17 420.2339 427.8842 434.0881 438.6406 442.505 445.5152 448.0215 450.2702 452.4373 453.6937 453.6374 455.5718 458.3481 461.4163 465.1381 468.9037 472.0168 473.9633 474.8071 474.42 473.3839 474.7532 478.8301 484.4454 489.9055 492.8665 492.9595 491.1414 492.9933 497.6855 501.2889 504.1299 509.2351 517.7684 522.446 522.4742 521.2278 519.5702 517.855 516.1019 514.4991 512.995 511.1925 509.4384 507.4746 506.0954 505.0706 504.5085 504.0057 503.2277 501.3734 502.352 505.7983 510.256 515.4911 521.1888 526.0223 529.8856 533.9899 538.9314 543.0138 545.8552 547.5636 549.2871 551.1946 553.3069 555.0665 555.8963 556.1805 555.4435 553.826 552.2943 551.1724 550.0114 548.7175 -9999
403.9153 404.781 407.9107 413.9899 421.0477 427.9717 432.6696 436.4785 440.2463 443.1601 445.5851 447.7311 449.7817 450.8307 451.1876 452.9857 455.1918 457.8504 461.1292 464.4062 467.4764 469.4078 470.0703 469.3858 468.4008 470.7461 476.0767 481.8413 484.8346 485.7716 485.9481 485.0212 487.6427 492.0249 494.4878 498.3389 504.1764 510.1768 516.5799 518.8632 518.1542 516.7233 515.4869 514.1887 512.7431 511.337 509.7741 507.7653 505.949 504.6528 503.7689 503.189 502.3838 500.8418 500.6984 503.7326 507.6623 512.1292 517.3694 523.2847 527.9129 531.5875 536.0746 541.0036 544.9187 547.1648 548.8442 551.002 553.2056 555.5201 556.8746 557.4017 557.4697 556.4307 554.5138 552.667 551.1403 549.6965 548.0103 -9999
402.6267 404.4538 410.5631 416.8479 422.682 427.0033 430.5435 433.9956 437.5644 440.5591 442.899 444.9655 446.9193 448.0817 449.1476 449.8798 450.762 453.1924 456.2049 459.2082 462.6021 464.7984 465.3597 464.508 463.9097 467.4393 473.3403 477.6117 478.7142 479.0469 479.9143 479.2085 482.8698 486.9722 488.4713 492.8447 498.6306 503.6771 510.5605 514.6036 514.4117 513.4185 512.6015 511.7706 510.9533 509.5322 507.9849 506.0408 503.9981 503.1693 502.6597 501.9696 500.6637 499.1014 501.4332 505.515 509.5565 513.6431 518.239 523.1794 527.4756 531.7112 536.8616 541.6308 545.1449 547.3394 549.6345 552.2112 554.73 556.6374 557.835 558.6282 558.5618 557.1264 555.0731 553.0637 551.1981 549.5026 547.6498 -9999
401.7299 406.7119 413.4762 418.2658 421.7518 424.7203 427.9664 431.4147 434.7181 437.6464 439.9333 441.842 443.6148 445.0339 446.1008 446.5983 446.8429 448.295 450.8864 453.7037 457.1692 460.0212 460.7723 459.8024 459.6845 463.8707 469.4759 472.6382 472.9211 472.3794 471.7292 472.846 477.0402 480.4141 483.7109 489.3802 493.5656 497.5442 504.3717 510.3705 510.5255 509.886 509.3734 508.8519 508.1727 507.1244 505.9969 504.1631 502.7515 501.9772 501.5178 500.459 498.6215 498.9603 502.709 507.3734 511.9172 515.5092 518.8203 522.7642 526.6971 531.2428 536.4293 541.4252 544.7629 547.3491 550.1309 553.1247 555.6587 557.1907 558.4395 559.2302 558.9257 557.4437 555.5546 553.7856 551.8367 550.0016 547.7825 -9999
402.0425 408.8084 413.6298 416.8312 419.3719 422.0593 425.3379 428.7699 431.9604 434.7167 436.8599 438.5857 440.1271 441.5234 442.4146 443.2889 443.6516 444.1566 445.8523 448.2873 451.0857 454.4979 455.7062 455.1257 455.6162 460.3279 465.0835 467.5106 467.2719 465.7526 465.2892 466.5683 470.0931 473.862 479.9401 484.6539 487.948 492.2181 499.0876 506.2219 507.0033 506.4464 505.8592 505.4236 504.9437 504.3008 503.5052 502.3662 501.1157 500.4857 500.0992 498.7591 497.5732 500.3179 504.8306 509.9462 514.2321 517.3428 519.964 522.9875 526.48 530.639 535.3705 540.2086 544.0399 546.9771 550.2192 553.502 555.7493 557.3573 558.6704 559.1511 558.6795 557.4687 555.9492 554.5586 552.712 550.687 548.3101 -9999
402.214 408.2225 411.6509 414.2875 416.7353 419.5651 422.6495 425.8535 429.1097 431.7271 433.96 435.5765 437.1902 438.3168 439.558 441.0275 441.4042 441.4467 441.8142 443.2508 445.212 447.9531 450.0798 450.0218 451.6492 455.6133 459.3212 461.7385 461.7825 459.6647 459.2219 460.8563 464.4634 469.5762 475.6253 478.7445 482.4861 487.5157 494.426 501.9731 503.0609 502.9109 502.5859 502.3075 501.9708 501.2415 500.4583 499.6649 499.0008 498.532 498.1334 496.214 498.2381 502.3653 507.2955 511.959 515.3415 518.2636 520.8882 523.391 526.1127 529.7374 534.149 538.7241 542.849 546.3554 549.8572 553.0689 555.3035 556.9875 558.1491 558.4996 558.1465 557.5107 556.4554 554.9736 553.152 551.0947 548.7019 -9999
400.8583 405.6573 408.738 411.5242 414.0685 416.8579 419.8964 422.9677 425.8405 428.4864 430.6999 432.6444 434.285 435.7287 437.552 439.4291 439.8795 439.6727 439.2314 439.2212 439.8726 441.4364 443.5338 445.0538 447.3979 448.9101 452.0349 455.722 456.4879 454.2115 453.3546 455.2165 459.0391 463.9541 469.7571 473.1936 477.7478 483.8386 491.99 497.97 499.2396 499.2838 499.2974 499.1495 498.8645 498.2355 497.3134 496.645 496.1112 495.5831 494.8962 495.6664 499.8586 504.9066 509.3478 512.5145 515.2104 517.9698 520.5756 522.938 525.2448 528.3204 532.6969 537.5267 541.6221 545.3119 549.0822 552.2769 554.4081 555.9708 557.1312 557.8384 558.0312 557.7194 556.6045 554.8878 553.0726 551.0152 548.5767 -9999
398.4255 402.478 405.5864 408.5914 411.3215 414.0595 416.9502 419.6235 422.283 424.8908 427.1762 429.2092 431.2732 433.433 435.7314 437.6663 438.4037 437.9893 437.3462 436.7956 436.29 436.2517 437.1622 438.7941 440.5476 441.3381 444.7118 449.1913 450.8994 449.2969 447.4045 448.7312 452.7706 457.5822 463.1053 467.9648 473.9886 480.8453 488.0361 493.2245 495.2879 495.9177 496.132 495.9944 495.9107 495.2943 494.5313 493.8126 492.9174 491.42 493.0479 496.3215 501.0088 505.8481 509.4338 512.0014 514.5763 516.9404 519.1885 521.312 523.7968 527.0844 531.136 535.7198 540.2511 544.23 548.0036 551.1267 553.2163 554.7585 556.0772 557.3053 557.6476 557.4695 556.3687 554.5332 552.709 550.7474 548.1766 -9999
396.1603 398.5363 402.373 405.5766 408.4885 411.0321 413.5786 415.9992 418.6184 421.1879 423.5067 425.6746 428.3271 431.1837 433.6846 435.3234 436.1364 436.2657 435.8609 435.5469 434.7211 433.0797 432.2513 432.6422 433.726 435.682 438.0677 441.8209 443.8528 442.6956 441.3842 443.0956 447.4853 452.5705 457.6387 462.8091 469.4713 475.9656 481.6641 487.1227 490.6831 492.3931 493.348 493.7264 493.7712 493.0098 491.9483 490.8038 488.8636 490.5434 494.7883 497.6083 501.2479 504.9656 508.2106 510.7454 513.116 515.1971 517.2048 519.4054 522.1816 525.4562 529.415 533.7715 538.5603 542.7982 546.7831 549.8773 552.0126 553.5341 554.8261 556.2141 556.4624 555.975 554.9871 553.4168 551.7703 550.0358 547.8151 -9999
392.6626 395.5416 398.9482 402.3863 405.3117 407.7357 410.117 412.2435 414.7025 417.1002 419.6535 421.9046 425.3001 428.7996 431.2407 432.7455 433.9781 434.6275 434.4937 433.3274 431.3792 429.666 429.0636 429.0456 430.2338 431.2553 428.6819 432.2063 435.0803 434.7969 435.3046 438.0575 442.9201 447.8011 452.2108 456.9801 463.283 468.5145 472.4535 478.079 484.5127 488.6914 490.5224 491.4673 491.6849 490.9612 489.7987 488.319 486.8708 490.939 493.9778 496.2343 499.5826 503.0394 505.9897 507.8865 509.5306 511.8365 514.3149 517.015 519.9857 523.4083 527.3136 531.7776 536.5419 541.0765 545.1455 548.4199 550.6583 552.2258 553.2459 554.2181 554.3394 553.9015 552.9077 551.6517 550.3 548.898 547.1604 -9999
388.3724 392.5212 395.2447 399.218 402.1538 404.3035 406.361 408.3319 410.427 412.8162 415.4901 418.2624 421.9167 425.821 428.6141 430.3697 431.8313 432.8547 430.4698 424.1351 423.1968 424.8063 426.8963 425.8008 428.2204 428.516 424.0569 420.6853 422.305 422.6415 428.5452 433.6243 438.4013 442.3475 446.4771 451.441 456.7137 461.0611 465.7579 470.9697 477.0104 484.7597 487.7666 489.0949 489.4572 488.8946 488.1213 486.5942 484.7247 487.9815 491.1577 493.4055 496.8834 500.1865 501.7965 501.7765 502.7787 505.2921 509.0987 512.5118 516.2548 520.4376 524.7299 529.2623 534.1099 538.9418 543.0453 546.6041 549.2123 550.5938 551.3071 551.7491 551.7767 551.2761 550.6006 549.5334 548.6157 547.6421 546.0685 -9999
384.3649 388.4473 392.6373 395.4692 398.9467 400.9202 402.3732 403.9042 405.8236 408.2701 410.7076 413.7496 417.3896 421.6154 425.1019 427.6414 429.5992 430.4764 426.1711 419.0571 416.5101 419.2271 422.7564 421.1893 423.4377 423.3658 421.9034 414.5092 412.6197 415.4912 423.5485 429.7083 433.5672 436.5051 440.4921 445.4752 450.112 453.5983 457.826 464.0769 471.0691 479.035 484.4628 486.6796 487.2637 487.0226 486.5361 485.1975 482.6368 484.143 487.607 490.3591 493.8102 496.1297 495.4829 494.436 495.5099 498.1313 502.3352 506.8716 511.456 516.2391 520.9996 526.0853 531.5079 536.3942 540.5598 544.3422 547.05 548.35 549.2328 549.5969 549.5154 549.0073 548.3697 547.422 546.6087 545.8472 544.4982 -9999
380.7437 384.7082 389.2246 392.3373 394.1381 396.9327 398.0164 398.8925 400.3615 402.7818 405.5573 408.7624 412.5627 417.2397 421.2505 423.2885 425.379 425.7272 422.1748 416.9997 412.2783 413.8809 416.1895 414.4687 415.9231 414.5854 415.2385 411.7664 408.0676 411.6018 419.0574 424.6987 427.6628 430.6987 434.267 438.7515 442.96 446.8613 450.6554 456.3203 463.5677 471.9559 479.9428 483.9359 485.1035 484.9334 484.398 483.1254 480.1173 480.7572 484.5704 487.6479 490.3414 491.0518 489.3226 488.0471 489.2091 491.6124 495.5544 500.6455 506.1962 511.6601 517.2463 522.8274 528.3877 533.4308 537.6515 541.4247 544.1482 545.9074 546.8883 547.4683 547.3088 546.723 546.1899 545.345 544.6372 544.0061 542.9845 -9999
377.1798 381.2271 385.3669 389.4056 391.3651 391.7402 392.7408 393.6872 394.9567 397.1141 400.2833 403.73 407.5965 411.7792 416.613 419.7232 421.253 421.7041 420.0066 415.4749 409.9711 408.4672 409.11 409.0825 409.6135 408.4515 407.235 407.7845 404.7475 408.2616 414.4146 417.4149 421.507 425.0188 428.7728 432.9659 437.0342 441.114 445.4352 451.6378 457.9907 465.8437 475.5237 480.9003 482.4465 482.5298 481.8231 480.2841 476.6332 478.0266 482.1526 485.2881 486.7732 486.0187 484.6838 484.2011 485.0149 486.6015 489.6487 494.6718 500.8742 506.3659 512.1309 518.2122 524.6939 530.02 534.4698 538.0995 540.7523 542.7877 544.0414 544.8547 544.8023 544.4951 543.9031 543.3084 542.7787 542.1912 541.1982 -9999
373.9968 377.9052 381.8119 385.1697 387.7627 389.1359 388.9464 388.6718 390.1343 392.1333 395.304 399.189 403.1302 406.9555 411.6254 415.7111 417.5872 418.3083 417.7673 415.539 409.0239 404.7863 403.1958 403.3874 403.1777 402.5746 400.5828 401.3778 401.7999 404.0041 409.2703 412.2073 416.1787 420.0368 423.8984 428.0795 432.0877 435.7889 440.6113 446.6002 452.9607 461.1978 471.7763 477.7323 479.6787 479.9163 479.3376 477.4682 473.6826 475.7697 480.4882 483.0334 483.3798 481.8922 481.3802 481.8091 482.1411 482.6266 485.0164 489.2617 494.774 500.1311 506.0044 513.1523 520.6946 526.4733 530.6812 534.5947 537.3879 539.4495 540.8389 541.7798 541.9983 542.0273 541.7618 541.3826 541.0168 540.329 539.1492 -9999
370.7798 374.593 378.2426 381.5134 383.7404 384.3195 384.4045 385.4627 386.0875 387.6905 391.0932 395.1226 399.0334 402.5353 406.6268 410.678 413.3743 414.7293 415.1993 415.0803 409.4414 403.9661 399.5032 398.0402 397.5151 396.5337 394.5121 395.3892 396.2792 399.1442 404.267 408.0842 411.8158 415.6367 419.4734 423.4243 427.0525 431.1111 436.6592 442.5285 449.3803 458.5106 468.516 474.6438 476.6355 477.0594 476.4279 474.3011 470.9575 473.2803 478.6211 480.4908 479.9197 478.749 479.6887 480.8759 480.9529 480.4209 481.4872 484.6097 489.1212 494.2397 501.0831 508.1678 516.4276 522.7196 527.0668 531.2051 534.142 536.0953 537.629 538.6251 539.2639 539.6083 539.8239 539.6628 539.3135 538.7626 537.7021 -9999
367.4025 371.1839 374.729 377.9486 380.1544 380.8188 380.122 380.6345 382.5679 384.1953 386.6036 391.0807 394.7674 397.8476 401.3005 405.2349 408.495 410.0959 411.4471 412.3048 407.8376 402.4802 398.4395 394.1781 392.516 390.702 388.9599 388.2616 388.8849 393.8031 398.9797 403.935 407.7694 411.7138 415.4783 418.9459 422.4407 426.8271 432.4103 438.7052 446.5234 456.0721 466.1353 470.8834 473.0665 474.0183 473.5153 471.1999 468.7777 469.7078 475.6153 477.4058 476.3839 476.8646 479.4959 481.7548 482.0264 480.6483 480.8344 482.5111 485.094 490.1039 496.9212 504.2448 512.1246 518.9341 523.3696 527.4177 530.7614 533.2363 534.7524 536.1198 537.0521 537.7104 538.0411 538.1947 538.0477 537.5592 536.4555 -9999
364.6159 367.9937 371.4674 374.5693 376.9268 377.9476 377.0729 377.2878 378.5053 380.6848 382.6831 385.7419 389.9125 392.8105 395.9102 399.5746 403.2935 405.6731 407.7711 409.1406 405.9766 402.7303 398.084 393.9331 390.4227 388.0635 386.4016 385.1287 384.7645 388.9033 393.7962 399.9875 404.4339 408.1567 411.4251 414.4455 417.9056 422.3674 428.2154 435.0399 442.3492 451.1815 460.4714 465.6807 469.2025 470.8895 470.5478 468.7925 466.167 465.766 470.9675 472.7718 472.8333 475.3147 478.9677 481.116 481.5886 480.3026 480.7687 481.6574 482.9271 487.23 494.1187 501.008 508.6953 515.0015 519.9768 523.9648 527.5139 530.0298 532.0389 533.6826 534.9894 536.028 536.41 536.737 536.6681 536.4032 535.3921 -9999
361.7524 364.8284 368.1153 371.1129 373.4372 374.4671 373.9614 373.8408 374.5105 375.8937 378.6964 380.9465 384.1589 387.9751 391.3425 395.3396 399.1191 401.3554 403.5786 404.1698 403.577 403.4938 400.1671 395.8713 391.8917 388.5034 385.5111 384.3926 383.5986 385.5532 389.2798 395.9276 401.4026 404.5405 407.1665 409.8923 413.5178 418.4752 424.6271 431.3466 438.5314 446.9875 455.2244 460.9133 465.1518 467.0452 467.4113 466.4587 463.8729 462.9142 466.3812 467.977 469.4263 472.9849 476.6689 479.0849 480.7473 480.4604 480.9807 481.0205 480.8934 484.2924 490.3044 496.8315 503.5452 509.5983 515.9902 520.6351 524.0864 526.9744 529.1629 531.0214 531.7434 532.8917 534.7146 535.2325 535.4065 535.1616 534.5436 -9999
358.8245 361.5757 364.5706 367.5974 369.9842 371.3387 370.9612 370.5303 370.1573 370.9352 373.2414 377.2637 379.6386 383.3072 387.2767 391.7232 395.6247 397.5891 398.8277 400.032 400.2843 400.5736 398.7045 395.5016 391.2216 388.4448 386.2675 384.0894 382.5758 383.6761 387.2879 393.1984 398.1873 400.6367 402.6591 405.5155 409.7414 415.1714 421.4888 427.9865 434.9653 443.3672 450.561 456.6466 460.753 462.5656 463.5361 463.3972 461.0248 460.1794 463.0829 464.1971 466.6086 470.4608 474.1323 477.1417 479.6644 480.255 479.8323 479.2285 478.4239 480.4555 486.0803 491.7171 497.4687 503.4584 510.2975 516.5404 520.6024 523.8899 526.4742 529.0579 530.7034 530.7042 532.8616 533.6907 534.0662 534.0259 533.3918 -9999
355.3018 358.1103 360.9248 363.8525 366.6149 368.2838 367.8279 366.5179 365.8819 366.262 368.3799 372.0597 376.6987 378.9955 383.6536 387.6845 391.2699 393.3606 394.9208 396.0168 396.4238 396.8862 395.265 391.4482 386.8546 383.9436 384.466 384.1104 380.4698 381.7405 385.4459 391.1313 394.0992 395.866 397.9785 401.4244 406.3093 412.1768 418.5654 425.1077 432.1629 439.6896 446.1401 451.7439 455.3477 457.4174 458.8195 459.6384 457.6806 457.0987 459.9501 461.6286 464.3904 468.2255 471.9804 475.0781 477.3661 477.9261 477.7248 476.8586 475.1273 476.3213 481.5678 486.4249 491.4835 496.9767 503.2933 510.2737 515.6827 520.1096 523.4664 526.5776 529.6819 529.7246 531.4877 532.4537 532.673 532.7303 532.0103 -9999
351.691 354.465 357.2532 360.2467 363.2238 365.5026 364.8548 363.6025 362.9061 362.8204 364.2077 367.5699 372.2651 376.4771 379.1691 383.7394 386.8997 389.2018 390.8912 392.0987 392.9243 393.7333 391.9887 386.8637 382.2707 379.9682 380.5823 381.5889 377.8376 378.4018 382.81 387.7809 388.5985 389.1507 392.314 396.6159 402.4174 408.9763 415.9587 422.9144 429.787 436.4866 441.6718 445.8086 449.61 451.9048 453.5505 454.8213 453.7905 453.6437 457.1946 460.1983 463.1609 466.8179 470.3428 473.2958 474.6128 475.1351 475.2563 474.5595 472.2092 471.8304 476.4894 481.8992 486.1623 491.2729 497.028 503.7928 509.7552 515.3777 520.0386 523.3684 527.139 528.4271 529.7619 531.0891 531.4197 531.4064 530.7289 -9999
348.1208 350.6963 353.7281 356.7361 359.8845 362.5939 362.4276 361.6184 360.879 360.6251 361.5008 364.2545 368.3686 373.1927 375.9749 379.1387 382.9169 385.1121 386.8517 388.4613 389.464 389.9184 389.1388 383.7064 379.5038 378.089 377.9262 377.0977 374.2066 374.2092 379.5362 383.2456 383.4076 383.1574 385.8252 391.1099 398.3029 405.6938 413.2825 420.4738 426.4865 432.0127 436.3718 439.8816 443.5407 445.9632 446.8958 449.206 449.0211 450.8045 455.6559 459.5394 462.592 465.7082 468.9324 471.0044 472.0638 472.2637 472.3847 471.9976 469.94 468.5433 471.8502 477.5071 480.9166 485.6421 491.0275 497.4081 503.4944 509.7833 515.9492 520.3737 523.9733 526.8265 527.9622 529.4153 529.9041 529.6858 529.2882 -9999
344.6541 347.3586 350.2618 353.4685 356.5554 359.4222 360.2011 359.1585 358.1996 358.1903 359.4097 361.4134 364.744 368.7418 373.2562 375.2133 378.358 381.1231 382.9022 384.8284 386.1656 386.2553 385.312 381.7756 376.3886 375.5575 375.0966 373.2339 369.5231 369.9983 375.6758 379.0624 378.701 378.0052 382.4505 388.85 396.5034 403.6294 410.4344 416.2769 421.8033 426.1218 429.406 433.5361 437.6213 439.6324 439.3507 440.8957 443.4095 448.0565 453.8304 458.3156 461.3167 463.9578 466.5471 468.5218 469.2103 469.0374 468.8225 468.4992 467.5786 466.3732 467.9462 473.1858 476.3743 480.05 485.2614 490.9456 497.2119 504.4595 511.6609 517.0677 521.0671 524.4766 525.8501 527.4297 528.1141 528.0722 527.8136 -9999
341.7884 344.3144 347.1921 350.3262 353.5141 356.583 357.7814 356.712 355.826 356.2539 357.4932 358.959 361.3704 364.4476 368.593 372.7603 373.8425 375.6017 378.2409 380.1351 382.5762 383.2549 382.7595 380.7293 375.1182 373.4547 372.3364 370.6783 367.3829 364.8871 371.0409 374.588 372.6685 374.7704 382.11 388.813 395.1627 400.5573 405.7944 410.5692 415.867 419.1021 421.8934 426.8275 431.4536 432.308 431.3878 432.3037 436.8311 442.7412 448.5224 454.7286 458.6706 461.2488 463.9121 466.3782 466.5518 465.7484 465.1956 465.0649 464.9127 464.9157 465.0321 469.1528 472.3624 474.8939 479.462 485.3234 491.6979 499.35 507.3845 513.7951 518.0682 521.641 523.8132 525.1758 525.8607 526.2297 526.2765 -9999
339.2384 341.8764 344.6327 347.6917 350.7032 353.6698 355.34 354.4144 353.5831 354.4566 355.9194 357.2142 358.9096 361.2898 364.9787 368.9166 371.9939 372.5759 372.587 374.0573 377.6565 379.5948 380.3864 379.8469 375.9159 370.5661 369.8942 368.1964 366.1496 361.5739 364.5325 368.6938 367.066 371.336 378.409 384.6527 389.9977 394.6315 398.5782 402.5396 408.121 411.4357 415.3949 421.4078 425.2264 424.813 423.6405 423.8107 428.8331 436.5813 443.4976 450.3885 456.0238 459.147 461.9498 464.006 463.5824 462.4913 461.8157 461.813 462.2986 462.8798 463.2344 465.8627 468.9364 470.0923 474.1793 480.2012 486.971 494.6837 502.7932 510.1304 514.9537 518.4389 521.4704 522.3842 523.7548 524.3607 524.5795 -9999
337.0398 339.4558 342.1612 344.8255 347.6994 350.5518 352.3802 351.9578 351.4896 352.5474 354.1616 355.4504 356.9387 359.2309 362.1351 365.0521 367.3846 369.2411 370.6924 370.6977 373.2272 376.5109 377.845 377.9839 375.8464 369.333 367.3057 366.0842 362.8492 358.14 358.7364 362.6465 361.8661 366.0261 371.3142 376.653 382.7719 387.5515 390.7488 393.6958 399.0981 403.6937 409.2848 416.2216 419.0302 418.3593 416.1998 416.1738 423.2326 431.4636 439.3619 446.1036 452.3045 457.3173 459.8782 460.7039 459.9208 458.8441 458.365 458.6248 459.3916 460.3553 461.1438 462.873 465.2211 466.5681 470.1677 475.8212 482.4432 490.392 498.0987 505.7976 511.0567 514.8544 518.2021 520.0565 521.2428 522.0999 522.7225 -9999
334.778 336.9493 339.4642 342.2058 344.9962 347.8182 349.5213 349.4239 349.2718 350.2111 351.8612 353.0945 354.5689 356.9508 359.2896 361.3648 363.1842 364.6006 366.1047 368.886 370.2563 374.0019 375.8755 375.7684 374.3739 370.4085 365.9254 364.0361 360.942 356.8534 354.3686 357.689 356.9776 360.3741 363.6803 367.7191 373.5858 377.6507 381.0706 385.5929 391.0282 395.9493 402.5382 409.7615 412.9078 412.133 408.7077 411.6425 418.789 426.9517 435.0705 440.4529 446.4937 452.5002 455.1823 455.5647 455.028 454.3297 454.3959 455.1699 456.4153 458.2542 458.8289 460.0462 461.993 463.606 466.5301 471.5941 478.3549 486.013 494.0319 501.5893 507.123 510.9686 514.6592 517.6316 518.3151 519.6169 520.4177 -9999
332.1864 334.3829 336.9603 339.752 342.4134 345.1214 346.983 347.2011 346.9925 348.1743 349.7464 350.8873 352.1721 354.4224 356.4144 357.9632 359.3039 360.5917 361.9726 365.6115 368.46 371.3606 373.4355 373.3427 372.1518 369.9306 365.4646 362.0638 359.3531 355.9106 349.9625 349.9424 351.7701 353.9809 355.5768 358.4435 362.5813 366.4318 370.7448 376.6707 383.3015 389.1205 396.8298 403.0432 406.5294 405.0289 402.499 408.7014 415.7059 423.0042 429.3828 434.2463 440.196 446.53 449.5685 450.0381 449.5056 449.2734 449.8861 451.3074 453.7935 456.7428 457.8166 458.2004 459.4989 460.6934 462.3481 467.7357 473.7975 481.3888 489.7969 497.2737 502.9496 506.9938 510.9212 514.206 516.2944 517.1045 518.1954 -9999
329.3033 331.815 334.4641 337.4049 340.2314 342.7996 344.4279 345.0499 345.0112 346.317 347.9169 348.9232 349.9496 351.8252 353.3197 354.3793 355.4088 356.5847 358.8116 362.9501 366.9117 368.1553 370.8464 371.0789 369.7109 368.2266 364.7028 360.6015 357.9022 355.8325 348.7412 345.3925 345.8462 349.8956 351.2744 352.3771 354.079 356.8323 360.4955 367.2241 376.2077 383.3538 391.1284 396.9442 400.053 397.3193 398.2381 404.8893 411.7649 417.417 422.3649 428.7407 435.1932 440.1387 443.619 444.4582 444.2614 444.4858 445.7074 447.6346 451.0216 454.7091 456.1931 456.3181 456.3279 456.2421 457.8072 463.4145 469.8983 477.2645 485.2555 492.4984 498.4408 502.9664 507.0114 510.6653 513.7175 514.7377 515.6937 -9999
326.6779 329.6256 332.529 335.5121 338.438 340.8881 342.2607 342.954 343.1893 344.5542 345.8963 346.7475 347.8069 348.8988 350.153 351.2512 352.0947 353.546 357.1588 361.2682 364.8421 365.9907 368.3105 369.0877 367.558 366.04 363.3126 358.8666 356.407 355.0606 350.4379 345.0809 348.3114 348.2582 347.5033 349.6431 351.2346 354.077 356.173 358.2018 363.4846 370.9006 380.4656 389.6747 393.2383 391.5329 393.658 399.5146 405.8684 410.4287 416.8425 424.5762 429.6207 434.2577 438.4239 439.4178 439.6425 440.3658 441.9021 444.4296 447.7365 451.0198 452.581 452.3757 451.823 451.4086 453.3763 459.0506 465.8688 472.9793 480.6106 487.798 493.7799 498.7857 503.063 507.0565 510.0112 512.4443 512.8234 -9999
324.972 327.9667 330.9764 334.0526 337.136 339.5893 340.4955 340.7826 341.1668 343.0195 344.4405 345.1067 345.4225 346.1645 347.2321 348.3129 349.1981 351.1175 355.189 359.3349 362.2906 364.3057 365.8894 366.6581 365.6622 364.2972 361.8041 357.7546 354.7477 351.9646 347.1917 345.2861 346.377 339.1965 340.9564 343.6064 345.2012 347.7551 350.9218 354.4295 358.0176 361.1406 366.4304 377.2023 385.9659 386.05 386.8712 391.2737 395.569 401.4482 411.6394 419.8367 424.5666 429.7936 433.4435 434.5398 435.3541 436.3865 438.1802 440.8555 443.5109 445.9641 447.6823 447.7615 447.3471 446.9234 449.1939 454.6124 461.0692 468.5037 475.9042 483.1107 489.3097 494.6695 499.432 503.4796 506.43 508.6514 510.4415 -9999
323.7326 326.5636 329.5815 332.7225 336.0772 338.1025 338.3433 338.2757 339.2735 341.8905 343.4671 343.8486 343.2789 343.6829 344.5601 345.4947 346.5052 348.6188 352.2013 356.2007 359.4035 362.3178 362.9775 364.2893 363.8626 362.4364 359.5324 355.5424 353.2214 348.9252 344.3517 345.92 340.3833 335.1366 336.6641 340.3999 340.543 341.21 343.9851 347.4417 351.7063 357.0749 361.0627 363.9587 371.4122 375.694 377.37 381.6643 384.7487 391.6839 403.3377 415.8621 421.7646 426.7102 429.2565 430.5309 431.3098 432.0634 433.8597 436.2637 438.6034 440.3877 441.6703 442.373 442.4376 442.6084 445.2313 450.7205 457.2142 464.2887 471.1382 478.1172 484.263 490.2703 495.5797 499.6644 502.6861 505.1537 507.0452 -9999
322.4357 324.9034 327.7972 331.3881 334.6298 336.0189 336.2389 336.1443 337.7072 340.6536 342.403 342.0175 340.9514 341.2393 342.0565 343.079 344.2349 346.2928 349.6374 353.1305 356.272 359.2619 361.0652 360.9457 361.5779 360.1382 356.2276 353.4532 350.6336 346.754 343.6859 343.1627 335.8527 333.1323 332.5475 336.0972 335.8828 336.0742 337.6531 341.5409 346.3079 350.9839 355.6323 360.6378 363.7086 364.1778 365.0389 370.9511 379.3369 386.7295 396.5741 410.3234 419.1808 423.924 426.3251 428.0445 428.6251 428.6022 429.3849 431.0065 432.9135 434.5294 436.2171 437.5639 437.9659 438.6066 441.9714 447.659 453.7987 460.4935 467.4911 473.3782 479.2947 485.4796 491.3565 495.3584 498.4409 501.0648 503.2464 -9999
320.3691 322.7089 325.4596 329.3173 332.5228 333.7551 333.994 334.1186 335.5128 338.0174 340.0303 339.2953 338.2612 338.7377 339.4989 340.5802 341.7634 343.822 346.8978 350.0359 352.9207 355.7599 358.4175 358.9286 357.975 356.6946 354.7101 352.2484 348.3843 345.0676 343.2078 338.0479 334.1082 330.6148 328.9537 332.2833 332.5672 332.6531 333.5779 336.3684 339.9739 343.9087 347.5462 356.1277 360.7471 361.5908 363.3271 365.4281 373.6709 383.3504 395.0712 409.5967 417.0704 421.5289 424.2114 426.1042 426.9172 426.4499 426.1188 426.8265 428.1993 429.8289 432.005 434.2291 435.3586 435.9977 438.7769 444.2346 450.3165 457.2605 463.7784 469.3158 474.9248 480.9591 486.6001 490.7141 493.9897 496.8317 499.4427 -9999
318.134 320.1313 322.7438 326.3216 329.4226 331.0143 331.503 331.4367 332.7181 334.6413 336.1187 335.9113 335.5347 336.11 336.8797 338.0013 339.4749 341.8155 344.1854 346.6934 349.4261 352.3252 355.1768 357.1239 357.4765 356.5758 354.2936 349.8884 346.7355 343.2268 341.3052 334.9047 332.1276 328.6026 326.2089 329.356 329.6516 329.8875 330.3408 331.3537 333.7582 337.0408 339.2634 343.7982 352.6692 353.4586 357.6642 363.5101 367.8521 382.3874 392.9299 404.7507 413.9495 418.5469 421.2008 423.2919 424.8537 425.2385 424.9524 424.765 425.3845 426.7973 429.2502 432.07 433.7896 434.2543 436.1153 440.589 446.6862 453.0326 459.6452 465.3587 470.3491 476.066 481.463 485.7621 489.4992 492.5814 495.2129 -9999
315.7314 317.2916 319.6405 322.9865 326.1805 327.8909 328.3337 328.4579 329.1776 330.7461 331.9067 332.5629 332.9846 333.7218 334.5836 335.7997 337.1399 339.1002 341.2348 343.3726 345.9201 348.9274 352.0016 354.596 356.2248 355.7121 353.2147 348.8942 345.0336 341.3135 339.273 334.3742 330.2111 326.7305 323.4981 326.7054 328.4465 327.983 328.1388 327.8647 328.9998 330.7704 331.9343 334.5854 341.1047 347.028 353.0594 360.9633 367.5718 376.3619 387.5414 400.4496 410.7314 413.8636 416.0547 418.1888 420.7423 423.2981 424.5479 424.4474 424.4131 425.0045 426.9456 429.6937 432.0332 432.7421 433.2643 437.5338 442.7137 448.5909 455.5037 460.8734 465.5443 470.891 476.5521 481.0763 484.8855 488.054 490.9836 -9999
313.2655 314.4974 316.6821 319.7827 322.7231 324.772 325.6981 325.3538 325.0641 326.3044 328.1227 329.7424 330.7351 331.4358 332.4037 333.3996 334.4387 335.9043 337.8119 340.0257 342.5928 345.6572 348.9126 352.1018 354.007 354.2018 351.963 348.0556 342.9657 339.5958 337.1765 333.3831 328.5994 325.2514 321.4193 323.0444 325.5586 325.6873 326.1479 325.5898 324.6152 324.9657 327.0103 331.2796 337.4364 342.842 351.0674 360.3657 367.6436 372.2685 385.0533 398.4171 404.7763 407.7906 410.1894 412.5309 415.8533 420.1407 422.8972 423.957 423.933 423.8634 424.7404 427.0567 429.6704 430.7328 430.4513 432.8629 438.2241 444.5024 450.6868 455.8696 460.6321 465.3088 471.1415 476.0353 480.1782 483.4232 486.4448 -9999
310.8028 311.8793 313.6998 316.1754 319.1266 321.5609 322.3094 321.6328 320.7437 322.3233 325.0991 327.2545 328.2471 328.9515 330.2809 330.7487 331.643 332.9837 334.7121 337.0284 339.8822 343.1066 346.6313 349.8797 352.1209 352.2892 349.979 347.1068 340.7371 338.2652 335.2628 331.887 327.6285 323.7741 320.1196 319.7813 322.5978 323.0753 323.5988 323.9691 322.1644 320.2877 323.0143 327.4354 332.9437 339.3275 347.3464 356.5732 366.0311 370.637 383.7114 393.2072 397.623 401.2944 404.7921 407.4783 411.2289 415.7987 419.9901 422.3313 423.01 422.7304 422.7526 424.2255 426.1628 427.5914 427.5837 429.214 433.6513 440.0746 446.4275 451.1584 455.2269 460.1884 465.6187 471.0818 475.1687 478.4817 481.5576 -9999
307.3234 308.5811 310.3864 312.6584 315.5269 318.0186 317.9977 317.0234 316.7385 319.7498 322.8522 324.6136 325.1776 326.2572 327.8681 328.305 328.6172 329.9517 331.7077 334.2739 337.2645 340.8766 344.8575 348.1783 350.6212 350.2954 347.9659 345.1967 338.7604 336.5655 332.6853 329.442 325.8077 322.2032 318.4706 316.4815 319.0731 320.4556 320.8662 321.7062 320.3936 317.0011 319.1636 323.7222 329.4259 336.4594 345.0876 353.7192 363.6021 370.2791 374.0063 385.8633 390.2314 394.2827 399.0641 402.6375 406.0342 411.1306 415.938 419.7037 421.3086 421.1889 420.7087 421.2538 422.5037 423.7304 424.0004 425.0397 429.6367 435.5529 441.4658 446.3114 450.6938 455.7834 460.2197 465.426 469.6935 473.4102 476.5878 -9999
305.9108 306.7342 307.7505 308.9969 310.2808 312.0691 312.7806 312.7696 313.9992 317.5864 320.6813 321.7266 322.0097 323.184 324.8274 325.5711 325.4714 326.6821 328.9339 331.606 334.8705 338.7952 342.8322 346.4777 349.133 348.5595 345.4423 341.6932 337.041 333.3102 329.1268 326.3317 323.8613 320.2947 317.1499 314.5845 314.6229 317.1332 317.3164 317.7855 316.7525 314.2236 316.3303 321.0401 326.7429 333.6169 341.9458 351.2934 359.953 367.3482 371.0477 374.4716 381.5499 387.5709 393.0887 396.6704 399.6442 405.386 411.8567 416.5398 418.8703 419.1121 418.4243 418.0683 418.7146 419.6232 420.4329 421.4376 425.1649 430.8055 436.7094 441.5009 445.7982 450.6164 455.1838 459.4106 464.2555 468.1091 471.3802 -9999
303.4063 303.9873 304.7579 306.2709 307.4373 308.6588 309.7236 311.2575 312.711 314.4941 316.9775 318.9382 319.0446 319.8264 321.3618 322.3934 323.0251 323.9466 326.2578 328.927 332.2761 336.3083 340.2091 343.9112 346.7377 346.2302 342.6299 337.676 335.621 330.0344 325.299 323.1939 321.4605 318.6188 316.4926 313.7223 313.0576 314.8074 315.2018 314.1005 312.3461 311.7622 315.4251 318.6637 323.0674 329.3425 338.3416 346.7887 353.3307 360.4832 366.7718 370.8222 373.1162 378.7354 386.8635 390.4573 393.9471 399.6668 406.8931 412.8138 415.8245 416.5005 415.9486 415.3151 415.2397 415.8828 416.8423 417.6541 420.7665 426.023 432.0479 436.8746 441.0128 445.6456 449.8834 454.2601 458.9089 462.6805 465.7809 -9999
301.2518 301.6255 302.038 302.5369 303.1827 303.892 305.2931 308.1067 311.6861 313.399 314.2137 315.1017 316.071 316.7902 318.1392 319.5021 320.4644 321.3561 323.0936 325.924 329.3571 333.4536 337.239 340.3901 342.8584 343.3545 339.8088 334.9915 333.291 327.1989 322.0671 319.5388 318.4437 316.7823 315.532 313.9531 311.9371 313.7591 314.1388 311.7004 309.6881 312.0289 315.3536 316.4842 318.9863 324.8087 331.9989 340.7448 348.7302 353.0592 360.27 364.6487 370.0403 373.6726 377.4608 384.0434 387.778 394.6042 401.0671 407.2387 411.5591 413.4561 413.342 412.9588 412.5609 412.6056 413.4702 414.0797 416.3046 421.3697 426.6806 431.5065 436.469 440.6034 444.8729 449.1815 453.6041 457.0363 459.9506 -9999
299.5974 299.8236 299.8564 300.0913 300.4217 301.1024 302.8115 305.9507 309.4958 311.6275 312.7542 313.2079 313.7016 314.9154 316.7225 318.0139 319.0734 320.0793 321.2627 323.3594 326.0416 329.8534 333.4207 336.6708 338.7646 339.4406 336.092 333.553 330.0596 325.0568 320.5076 317.084 315.5317 314.2708 313.7774 313.0721 310.5251 312.7909 312.8242 309.3449 307.265 311.2799 313.6398 313.883 315.3691 320.4838 327.5004 334.049 341.9774 344.7178 352.1475 358.2573 364.7107 372.0233 375.1381 376.7351 380.3181 388.3059 395.2184 401.7845 406.2928 409.4866 410.4467 410.3224 409.9719 409.6715 410.0189 410.5114 411.8426 416.5937 422.3379 427.2451 431.8539 435.6317 439.4485 443.3487 447.0984 450.8962 453.605 -9999
298.136 297.9223 297.5915 297.5471 298.0938 299.0677 301.0506 304.3156 307.1366 308.5796 309.2744 309.4262 309.7989 310.9796 313.0803 315.4229 317.9497 319.556 320.7464 322.1224 323.6976 326.6597 330.381 332.9265 334.5293 334.325 332.3476 332.066 327.2351 323.2627 319.6375 315.5722 312.9203 311.5948 312.244 312.1393 308.6254 311.517 311.0148 306.6375 305.5724 310.1046 311.7438 312.0066 312.5283 316.29 321.7172 327.8267 334.5507 339.1417 344.8109 352.4864 360.0722 367.1413 371.96 374.4576 377.2361 380.4791 388.8694 397.0945 402.3331 405.5263 407.5229 407.85 407.9121 407.2137 406.9594 407.2225 408.4885 412.1216 417.1689 422.2612 426.6667 430.4122 433.3564 437.3811 440.7853 443.9474 447.1216 -9999
296.2165 295.7093 295.219 295.2825 295.7511 297.0105 299.5402 302.3536 304.3245 305.6492 306.1075 306.1273 306.5453 308.3177 310.6187 312.7296 314.8712 316.6606 318.2701 320.6118 322.9793 324.6627 326.2315 328.2234 329.4564 330.1777 331.2275 330.4691 325.5421 321.4809 318.1097 314.0259 310.3826 308.6884 309.6433 310.2319 306.714 309.6998 309.3853 304.2326 303.5657 308.2684 309.8119 310.2141 310.0899 313.0412 316.6351 321.5279 327.2057 332.8104 338.5198 346.41 355.0074 361.6869 365.0255 367.5217 373.5034 378.821 382.809 391.9687 398.1006 401.9203 404.2021 404.9768 405.0099 404.3262 403.7145 403.5565 404.4352 407.5482 411.9088 416.6136 421.0846 424.5909 427.5568 430.5231 433.9533 437.0015 441.1385 -9999
293.9786 293.2195 292.5234 292.8077 293.9212 295.9156 298.2782 300.027 301.2432 302.1215 302.6323 303.1344 303.8935 305.9685 308.3483 310.5287 312.3229 314.1468 315.8904 317.7569 319.8994 322.866 325.588 327.3636 328.6655 329.8853 330.5961 328.7694 324.1979 319.9795 316.3439 312.3774 308.5724 306.1639 306.9182 308.2389 305.1187 307.8365 307.4104 302.6679 301.3642 305.2881 307.0032 307.4975 307.6771 309.1661 312.3591 315.7867 321.0439 326.2116 332.5237 341.4245 349.5827 355.623 357.9347 361.4933 367.8817 376.7421 381.5307 386.5143 393.9209 398.3557 400.7 401.7894 401.896 401.2918 400.5893 400.1616 400.4969 402.45 406.7063 411.3871 415.7041 418.8688 421.2578 424.3615 427.0703 430.8332 435.489 -9999
290.9767 290.298 289.8162 290.9149 292.9358 294.9096 296.5277 297.4868 298.135 298.5499 299.1649 300.0203 301.4733 303.8378 306.6309 308.6622 310.3162 312.2014 313.9827 316.0466 318.137 320.3793 322.2957 324.166 325.4148 326.372 327.4307 325.8098 322.6805 318.6846 315.1365 311.3325 307.5629 304.129 303.5199 304.9488 302.7811 305.5651 305.6853 302.0415 299.5536 301.9902 303.4046 303.3935 304.2993 305.4012 308.5183 311.6017 315.3852 320.8827 327.0607 335.7184 343.6136 348.1097 351.07 356.7409 364.9126 373.6609 380.7844 383.8951 389.0241 394.8179 397.2815 398.5261 398.6005 398.083 397.4061 396.6888 396.838 397.885 400.3062 405.4409 410.3077 412.9912 414.934 417.4012 420.7487 425.2744 430.1432 -9999
287.8508 287.4863 287.7964 289.3039 291.3382 293.0258 294.0831 294.7703 294.9582 295.3089 296.0545 297.9574 300.1631 302.7324 305.1118 306.9375 308.3976 310.2448 312.1454 314.2894 316.2022 317.9205 319.6509 321.1766 322.3045 323.3215 323.8248 323.446 321.232 317.3721 314.4912 310.6397 306.9005 303.6106 301.9572 301.2501 299.7399 303.4299 303.3927 299.2311 296.9449 299.1151 300.2407 299.733 300.51 302.1068 304.6778 308.1009 311.6442 317.1916 323.7526 331.217 336.7517 341.4973 347.846 355.3809 363.8492 371.6402 378.0119 383.6072 386.0487 389.9034 393.6132 395.3632 395.5365 394.9789 394.1953 394.8442 396.1663 397.6396 399.1209 400.5024 402.9561 404.9118 406.1954 409.1092 414.4681 419.7754 423.9971 -9999
285.0106 285.1045 285.939 287.6445 289.4534 290.6093 291.4253 291.6629 292.0823 292.9242 295.0721 297.472 299.7321 301.5699 303.295 304.8565 306.2526 307.868 309.8387 311.8005 313.7123 315.3448 317.0632 318.7367 319.9868 320.8946 321.4453 321.322 319.7018 316.3717 313.7794 310.7639 306.4117 302.9922 300.3911 297.5103 298.7183 301.3552 300.7777 297.674 296.2411 297.7021 298.0163 296.8976 297.5497 299.042 300.9873 304.1794 307.8434 313.6812 320.6131 325.689 330.5097 338.2793 346.3058 354.9044 363.2464 370.3846 376.0462 380.625 385.0622 387.292 389.181 391.3174 391.8268 392.0639 392.838 393.7433 394.9473 396.2498 398.2435 400.1885 401.4818 402.2352 403.4999 405.4999 407.4949 412.9757 418.3927 -9999
282.4646 283.3474 284.5404 286.0756 287.4942 288.4038 288.8394 289.2053 290.4059 292.4763 295.1022 297.0628 298.7035 300.022 301.3618 302.7162 304.0004 305.4231 307.2592 309.0049 310.8952 312.5048 314.2107 315.8193 317.1473 318.3492 319.0276 319.1932 318.0612 315.1482 313.0201 310.4335 306.0681 302.1766 299.3868 295.178 298.6058 299.7563 297.3823 295.6186 295.5419 297.4285 296.9553 295.5875 296.0343 297.2446 299.1549 302.0395 305.4705 310.2654 315.7923 322.2117 330.082 338.0105 346.0882 353.9823 361.2837 366.8099 371.9913 376.9087 380.8327 384.329 387.4988 389.3494 390.4117 391.4777 392.3385 393.0486 392.996 390.9265 392.8076 394.8665 395.8246 396.076 397.5437 401.782 406.3242 409.1448 415.7797 -9999
280.2512 281.7465 283.1646 284.5986 285.7026 286.4008 286.9904 288.0554 290.0349 292.4126 294.6262 296.0203 297.191 298.389 299.4592 300.7445 301.8115 303.0674 304.7551 306.4389 307.8908 309.3102 311.073 312.7728 314.1415 315.4642 316.4466 316.9419 316.201 313.8727 311.7556 310.2534 306.59 302.0432 298.9875 293.7522 296.7076 298.1172 295.2922 294.1359 294.2875 296.4892 295.6079 295.112 295.4511 296.5362 298.4178 301.1619 304.4349 309.514 315.7498 322.8172 329.7345 336.7858 343.7941 350.6163 355.7293 360.5585 366.4922 371.6274 375.8787 379.0168 382.4216 385.5022 387.8383 389.62 391.1905 390.5032 389.0469 388.1845 388.7139 389.6934 390.6595 391.433 392.6957 396.0705 401.9304 408.4102 412.367 -9999
278.2879 280.374 281.7897 282.9263 283.7876 284.6366 285.7302 287.6416 290.089 292.0254 293.5862 294.6339 295.6262 296.7123 297.649 298.8529 299.8674 301.1419 302.7042 303.9379 305.0977 306.3931 307.8453 309.5907 311.1736 312.61 313.9142 314.4916 313.9226 311.9711 310.1184 309.1563 306.9043 302.1309 299.0394 293.0003 295.0055 295.709 294.5109 292.7646 292.6712 294.7981 294.5214 294.8047 295.0572 296.0507 298.1947 300.7268 303.9729 309.705 315.7642 321.5155 327.9492 334.741 340.398 345.2754 349.2657 354.3074 360.2277 365.4388 369.6167 373.0692 376.6283 379.5969 382.6977 384.534 386.0772 386.658 386.8384 387.2757 387.3925 388.1684 387.8967 387.3301 389.9172 393.7332 397.9117 405.0394 410.9685 -9999
276.818 278.5227 280.2932 281.57 282.8763 284.3518 286.0463 287.9463 289.7556 291.1342 292.2712 293.2177 294.1223 295.1473 296.0615 297.1206 298.204 299.3306 300.5395 301.5916 302.7795 303.8656 305.1736 306.655 308.2143 309.7325 310.9949 311.8749 311.6482 309.9192 308.2487 307.4315 306.507 302.6131 299.1182 292.0423 291.6865 294.1548 293.5612 290.9292 290.9161 292.9841 294.1953 294.6289 294.4665 295.0489 297.0669 299.4215 303.5615 308.8046 314.6928 319.9444 324.7804 330.7646 335.4734 339.546 343.463 348.7323 354.2205 359.0584 362.6168 365.786 369.9286 373.0018 377.4243 380.5616 381.6609 382.9845 384.363 384.2331 383.7111 384.1943 383.2891 381.6281 385.3858 391.6036 396.412 400.4753 408.1183 -9999
277.3922 278.9616 280.3853 281.9955 283.7104 285.1287 286.4403 287.6731 288.9049 290.0815 291.0402 291.9344 292.5471 293.4468 294.5142 295.5718 296.601 297.6358 298.6407 299.5204 300.5591 301.71 302.8685 304.2228 305.5341 306.8034 307.6964 308.5556 308.7072 307.4601 306.3136 305.247 305.1891 302.2784 298.411 291.8904 287.3775 287.9754 292.1624 290.0031 287.551 292.8534 294.0251 294.1886 294.1426 294.3617 295.7266 297.6104 301.9727 306.6512 311.4985 316.9311 322.0653 325.5225 329.6429 333.5142 337.9611 343.2212 348.5681 351.8815 354.8167 358.3293 362.1701 365.8488 371.3493 375.7204 377.8441 378.7518 379.6062 380.3276 380.3353 380.7605 380.0163 377.8685 381.3511 387.9266 393.9749 398.0214 402.2512 -9999
278.1357 280.2557 281.3637 282.6225 283.9257 285.145 286.1725 287.1248 288.1628 289.0379 289.7293 290.4424 291.0605 291.9017 292.8526 293.8945 294.8346 295.8459 296.8321 297.64 298.5878 299.4867 300.4503 301.7022 302.7582 303.5039 304.1291 304.8967 305.156 303.9892 303.1453 302.4203 302.7614 302.2432 298.176 293.9766 287.8618 284.0915 288.7657 286.437 284.9546 290.9614 292.7949 293.7491 293.7944 294.0197 294.3242 296.2195 300.3713 303.658 307.8126 312.6528 316.7231 320.1819 323.5996 327.4985 332.0937 337.7634 342.1595 344.0099 346.7978 350.4286 354.1503 358.1521 364.4331 369.6888 372.8376 374.543 375.9544 376.9588 376.7303 376.6594 375.738 373.9061 378.3796 384.8883 391.2339 396.2006 399.3202 -9999
278.1306 280.127 281.4956 282.6703 283.6393 284.6129 285.5041 286.4709 287.3357 288.0872 288.7296 289.2321 289.6399 290.3192 291.2772 292.4314 293.2647 294.16 295.1848 296.037 296.799 297.2517 297.9275 298.8851 299.5225 299.9777 300.6039 301.3254 300.8908 299.2169 298.6653 298.3043 299.0888 302.1591 298.4803 294.0341 289.2937 282.7247 283.7993 281.9108 282.2245 287.3209 291.4218 291.794 293.1653 293.6902 293.4101 295.6064 298.8215 300.4286 303.9901 308.2353 311.1795 314.4615 317.536 321.7781 327.7203 333.0602 335.472 337.0821 340.0302 343.7188 346.8174 351.4741 357.2352 362.9333 366.1721 368.6985 371.4817 372.741 373.135 372.9051 370.6885 369.5464 375.0268 382.6092 387.568 392.1202 397.8508 -9999
277.8304 279.5829 281.2234 282.4672 283.3174 284.0421 284.8208 285.6622 286.4158 286.9814 287.4392 287.7473 288.1348 288.7607 289.6874 290.888 291.7921 292.5843 293.4132 294.0723 294.3988 294.578 294.8952 295.6145 296.3047 296.7453 297.2734 297.5066 296.5099 294.2651 293.3777 293.321 294.9311 299.2067 299.124 293.2452 289.7842 285.5564 279.6927 278.1452 280.6613 283.6531 287.5253 289.7471 292.1953 292.4689 292.3898 294.4286 296.3707 297.3343 299.9813 303.5874 306.2126 308.6762 312.379 317.7564 323.7673 328.3588 329.3941 330.8041 333.1803 336.9493 340.88 345.4266 351.9005 356.8099 359.9911 363.0461 366.3833 368.771 369.3513 368.2762 365.3524 364.9817 370.42 377.2978 382.6653 389.3727 396.5084 -9999
275.6151 277.8372 280.3752 281.9541 282.8768 283.2072 283.6036 284.2582 284.85 285.3744 285.8217 286.038 286.5732 287.1884 288.1107 289.3164 290.2179 290.633 291.0505 291.4388 291.8281 292.1173 292.5407 292.9624 293.4962 293.8463 294.1324 293.9077 292.4782 289.7058 288.2005 288.4582 291.1856 295.6123 298.1683 293.0635 289.2628 287.0811 280.6524 276.4027 278.8723 280.9725 283.162 287.291 290.06 290.9916 290.5164 292.1357 293.9506 294.4796 296.4822 299.2018 301.1616 303.6538 307.997 314.659 320.7157 323.3937 323.1675 324.2396 326.1247 329.4496 334.5248 339.5898 344.4602 349.1415 352.5376 355.9431 359.9996 363.6851 364.7161 362.9348 359.8566 360.1469 365.0079 371.4173 380.1829 388.1375 394.6649 -9999
272.1142 275.4368 278.6467 280.8738 281.4358 281.5754 281.7002 281.7906 281.9916 282.4446 283.2815 284.0106 284.7309 285.4686 286.6225 287.7808 288.4169 288.7019 288.8275 289.1718 289.8206 290.486 290.7322 290.8772 291.0073 291.2981 291.3384 290.3557 288.2917 285.6378 283.9046 284.8748 289.0034 292.8202 295.4186 293.1261 288.3094 285.6173 279.1694 274.4024 276.2633 278.3784 279.8248 283.8486 287.291 288.9652 288.9515 288.7144 290.9615 291.9864 293.0623 294.4533 295.5279 299.0818 304.3897 310.9447 316.2434 317.519 316.8727 318.05 320.2024 323.94 328.6761 333.9366 337.9469 340.4886 344.532 349.2486 353.8307 358.1763 359.5547 357.1168 354.2752 355.5554 361.6443 370.1076 378.9268 384.7185 390.112 -9999
268.5351 272.5652 276.4981 279.3351 279.941 279.8743 279.7967 279.252 278.1118 277.8575 279.2496 280.8602 282.012 283.3224 284.9583 286.1691 286.5744 286.7507 286.9629 287.1735 288.2485 289.1314 289.0421 289.0281 288.6684 288.5948 288.0813 286.4997 284.0179 281.1741 280.176 283.2623 288.0583 290.9778 292.1118 291.7343 287.1456 284.313 279.2083 272.6727 273.4081 275.4306 276.9962 280.4625 284.0104 285.9364 286.257 285.7993 286.682 288.8824 289.6865 290.0145 290.0943 293.857 300.7149 306.1683 311.0746 311.2552 310.8741 312.2854 315.0494 319.2671 323.257 327.4103 330.7196 333.5885 338.0184 342.9568 347.8329 352.417 354.1594 352.1465 349.285 352.0054 358.7323 366.9202 374.6377 379.5932 384.1992 -9999
265.2323 269.9998 274.8507 278.1125 278.7381 278.1005 276.9777 275.2978 273.3539 272.4511 273.7518 276.164 278.3805 280.5262 282.6275 283.7666 284.2714 284.5234 284.6811 284.9689 285.7242 286.2739 286.318 286.3849 286.0358 285.3797 284.3002 282.4785 279.6962 276.79 277.07 282.1022 287.2065 289.6232 289.4983 289.1398 285.8071 282.2296 281.127 273.7581 270.6631 272.4356 275.3409 277.4783 279.5082 281.9157 282.9091 282.2444 282.3595 285.1719 285.2901 284.5956 285.0735 290.1447 296.9894 302.3895 305.6154 305.3583 305.1351 306.8384 310.3157 314.1563 317.0672 320.3841 323.2772 327.187 331.8562 336.5088 341.5386 346.2056 348.6666 347.3575 345.4211 349.327 355.3102 361.1618 367.6827 372.3996 376.2927 -9999
262.5921 267.6492 272.8942 276.894 277.1149 274.8928 272.1173 269.8721 268.1183 267.2357 268.7437 271.2194 273.7867 276.5694 278.8652 280.1738 280.298 280.8165 281.3483 281.958 281.9976 281.933 282.1912 282.302 282.1031 281.491 280.4073 278.1682 275.0437 272.6719 274.8665 280.4594 285.3928 287.7029 287.01 286.0944 285.3572 281.4681 279.6102 275.7349 268.2734 270.2716 273.4853 275.7589 276.6909 278.3954 278.8764 277.3127 278.9598 280.2438 280.0115 279.8008 282.3698 287.8411 293.2492 297.8771 299.8091 299.2211 298.6082 301.5302 304.9339 307.6951 310.537 313.6012 316.3918 320.7697 325.3931 329.6593 334.8542 339.6446 342.4337 341.6209 341.3413 345.8214 350.425 354.9243 360.0222 363.9722 367.1376 -9999
260.6317 265.4247 270.623 274.5734 274.5524 271.2027 267.4146 264.9055 263.8108 263.806 264.7768 266.731 268.9642 271.416 274.0088 274.3828 273.6498 274.5861 276.5711 277.163 277.2407 277.3351 277.5457 277.7997 277.6448 277.4017 276.4311 273.7019 270.2367 268.6688 272.4333 278.1222 282.7226 284.7014 284.2073 282.8923 282.9069 281.6721 278.95 276.1952 267.3111 265.6917 270.7882 272.6474 273.5186 273.6547 271.9724 271.7099 275.0869 276.4049 275.5073 275.825 279.9666 284.3199 288.8591 293.0049 294.4483 293.499 292.8303 295.9738 299.004 301.4029 303.9438 306.7935 310.1473 314.121 318.4625 323.8653 327.8236 332.797 335.3968 335.6447 337.4763 341.4239 344.6635 348.5277 352.1151 355.2011 360.8696 -9999
258.8158 262.8412 267.3244 270.5945 270.8538 267.7311 264.1221 262.676 261.3925 261.1525 262.1502 263.3515 263.7843 265.8961 268.6283 267.7615 266.4963 268.2791 270.795 271.4884 272.0918 272.8379 273.597 273.866 273.6769 273.4737 272.1832 269.0139 265.8648 265.4133 269.9599 275.6039 279.854 281.3972 280.6068 278.7864 278.6763 279.3949 277.7678 274.7104 267.8761 262.052 266.5842 269.3427 269.7205 268.7963 266.455 266.5087 270.4289 271.6559 269.6475 271.9347 276.1854 280.8122 285.2024 288.6216 288.7766 286.9795 287.8716 290.174 292.6338 294.7933 297.4647 300.4416 304.2964 307.9098 312.1968 316.8131 321.9468 326.0327 328.4261 330.8006 334.4841 336.06 338.0374 340.9728 344.0381 350.951 360.4301 -9999
256.5554 259.1894 262.3401 265.0779 266.0513 263.9643 261.549 260.4423 259.1676 258.5623 259.9867 260.6612 259.6874 261.6199 263.5017 262.168 259.7876 263.946 265.4919 265.3779 267.0157 268.8697 269.9634 270.3559 269.8052 269.0128 267.6041 264.5291 261.8956 262.7424 267.9145 273.2785 276.835 278.1871 277.4685 274.8491 273.6423 274.924 275.6131 273.5663 269.4821 262.125 261.2834 265.2271 266.0403 264.3237 262.4957 261.4688 263.9197 266.2957 264.3561 268.1247 272.3793 277.0755 280.258 282.9211 282.9359 282.0983 283.6897 284.9071 285.9439 288.5379 291.2823 294.2699 297.7769 301.6375 304.7525 308.3893 314.326 320.0383 323.6052 326.7565 329.1296 330.1638 330.8545 334.1221 341.6047 350.8052 360.2119 -9999
251.827 254.0898 256.4235 259.1084 260.5587 259.5037 258.2784 257.2711 255.4084 254.9158 256.6444 256.3572 254.534 257.4243 258.0204 255.8899 253.7247 258.7454 260.21 259.8321 262.1615 264.79 266.2523 267.1049 266.3708 264.6995 262.8485 259.8708 258.0615 260.1928 265.6317 270.7859 274.0211 275.1574 274.4795 271.5765 269.0948 269.892 271.3806 271.2754 269.2087 263.4103 257.9445 260.3873 262.4301 260.5918 257.7615 256.6734 258.0037 260.7782 260.3135 264.4394 268.7413 272.652 275.4616 277.546 276.9352 276.6584 278.6615 278.8038 279.925 281.4529 284.3808 287.2491 290.9282 295.1445 297.1652 300.4966 306.9766 314.4142 318.8887 320.0718 319.7737 322.3607 324.7676 332.6048 341.023 349.1843 357.8202 -9999
243.9606 246.7495 249.4384 251.0578 253.0398 253.5571 253.9684 253.266 250.4218 250.0009 251.5829 249.9838 248.9132 251.8157 252.1956 249.0943 249.146 253.0713 254.4563 255.2127 257.4376 259.6497 261.9225 263.7454 263.455 261.1519 257.9349 255.0977 254.2235 257.5418 263.2687 268.0709 270.8741 272.0832 271.6212 268.6297 265.3326 265.3578 266.3613 266.1653 265.4132 263.1207 257.9843 255.3149 257.2889 256.6282 254.6595 252.4691 252.0966 255.094 256.8409 261.2507 264.8266 268.1969 270.2762 271.2059 271.0841 270.8585 272.6601 272.4099 273.373 275.6701 277.2305 280.4068 284.2172 288.1703 289.9132 294.6547 302.0485 308.5899 312.1708 311.9367 310.7634 315.61 322.2693 331.1565 338.3018 345.6146 354.2015 -9999
236.5231 238.3836 241.0595 241.5451 244.4088 246.3913 248.2761 248.656 245.8791 244.2043 243.8099 241.5416 242.6875 245.4732 245.3038 242.8971 244.7487 247.7487 248.2478 249.356 251.3505 253.7034 256.8088 259.6353 259.6943 256.48 252.8813 249.5341 250.3853 254.6702 260.2264 264.4191 266.8087 268.192 268.0099 265.3888 261.9601 261.2989 261.8789 261.1839 260.0193 260.8653 258.1598 252.8455 250.0822 249.7044 251.02 249.9657 247.2491 248.8195 252.9583 256.6569 260.2445 262.345 264.6789 266.2427 266.2404 266.0367 267.2971 265.7176 265.3567 268.1619 271.0151 274.4192 278.6411 281.4246 285.5255 292.207 297.9571 302.8038 305.4255 304.3566 305.1209 311.8754 319.6109 327.9403 335.6214 343.2276 351.0721 -9999
226.5366 229.0917 232.5999 233.2784 236.2876 239.914 242.0402 241.2794 238.9581 237.8939 238.5408 237.2 236.8223 237.7312 238.8016 236.9447 239.2246 241.0562 242.4764 243.4196 245.3443 247.6074 250.614 254.0418 254.8853 251.4982 246.1856 244.5877 246.963 251.8835 256.5218 260.1811 262.5038 263.8558 264.0778 261.9485 258.3181 256.679 257.6237 256.9612 254.6235 254.346 254.6553 251.7068 245.6996 242.8192 244.5288 246.2694 244.4168 244.4684 250.0858 253.0418 255.6639 257.3281 259.483 260.9669 261.343 261.6046 261.528 258.7124 258.3168 260.7034 263.9361 268.2503 271.3123 276.1902 281.9774 287.5292 291.6204 295.932 298.5182 297.4147 301.8095 309.5667 316.9133 325.2518 333.6416 341.8339 348.5702 -9999
216.9627 218.9296 222.055 225.0138 230.261 234.363 234.165 231.1127 230.4889 232.4484 233.6892 232.3848 232.0354 231.0167 232.498 231.9966 232.8444 234.2156 235.769 237.3546 239.1844 240.6802 244.2896 248.2495 250.2447 247.8034 242.8663 240.9147 243.7299 248.6737 253.0589 255.8593 257.9209 259.1776 259.4452 258.1864 254.903 253.0001 254.1302 253.9264 251.7592 250.1868 248.8566 246.8289 242.5596 237.1517 236.7759 239.056 238.426 241.0046 246.8365 249.0598 251.1282 252.8254 253.9481 255.9724 257.035 256.7283 255.9605 252.984 251.8492 253.6859 256.4806 260.6293 265.9789 272.109 276.7521 281.4179 285.5138 289.2887 290.3606 292.3278 300.5183 306.5296 313.2679 322.2885 330.702 338.6952 344.8749 -9999
214.2786 215.4261 215.8364 216.7259 220.4296 225.2709 224.9912 222.3559 223.368 227.8412 228.1741 227.6927 226.8465 225.545 227.0533 226.8153 226.2056 227.8939 229.9092 230.7405 232.6764 235.1724 238.6183 242.2921 245.5813 243.5387 239.6212 237.8217 240.596 245.9727 250.0507 251.8875 253.3571 254.3498 254.6575 253.5439 250.7006 249.4621 251.2564 251.767 249.9932 247.5251 245.3592 242.0589 237.1441 233.2341 230.8768 232.0249 233.3104 239.0665 243.438 245.1227 246.3147 247.7822 249.3216 252.4037 253.1742 251.092 250.0502 247.4099 246.4073 247.928 250.2564 254.1305 260.1985 266.1588 271.0293 275.6326 280.2111 282.6865 283.836 290.6825 297.8964 303.4584 309.6037 318.6041 326.7012 333.485 338.4844 -9999
208.0563 210.6339 213.4593 215.0201 215.4445 216.0236 217.1735 217.3895 218.9735 220.4857 220.9153 221.3501 221.2473 220.1194 221.1401 221.2997 220.7222 221.9494 223.5683 224.2344 226.457 229.367 233.7006 237.9949 241.1928 239.985 236.5584 235.1239 237.9363 243.3068 247.0997 247.9886 248.6414 249.2649 249.4177 248.3955 246.3293 245.8912 247.986 248.7209 248.5205 246.0124 242.088 238.2179 232.3741 228.0579 226.9063 227.369 230.9386 237.8033 239.0995 241.3369 242.3654 243.8439 245.6994 248.2191 248.8679 245.6965 244.2058 242.3273 242.2307 244.0328 246.4597 249.756 254.3371 259.6259 264.9352 269.6872 273.6635 276.3247 281.7849 289.0952 294.9101 300.0291 305.9484 313.6239 321.5121 327.2786 334.1563 -9999
201.1015 204.0494 206.8292 209.6157 212.3846 214.1597 214.8987 214.9548 215.0557 215.5506 215.7113 215.8546 215.8276 215.3745 215.3563 215.2977 215.0634 215.8274 216.9684 218.6752 221.2013 224.3315 228.0407 233.4742 237.1368 236.3706 233.3702 232.7323 236.157 241.1278 243.5126 243.3376 243.3083 243.86 244.1335 243.2589 241.9375 242.7573 245.6335 246.2213 246.1823 244.1292 239.883 234.0653 228.2635 224.1999 223.9222 224.8963 229.8435 234.7512 233.8913 236.9395 238.5336 239.7063 241.7594 243.2899 242.7385 240.6213 239.1873 238.3796 239.2485 241.8048 243.563 245.7173 249.649 253.7695 258.2083 262.3646 266.2688 271.4494 279.5982 287.0851 291.9434 296.0276 301.2693 307.5673 316.1186 323.4339 330.7628 -9999
196.2664 198.7755 200.4446 202.5666 205.1272 207.3521 209.9175 211.771 213.0891 214.0461 214.3665 214.2253 214.0976 214.1889 214.0146 213.6617 213.6682 213.6803 213.7233 214.086 216.3063 219.7988 224.1834 228.5252 231.5336 231.5381 229.8289 230.2977 234.6033 238.3965 238.9554 237.9101 237.5654 238.0135 238.2313 238.136 238.0553 240.4351 244.0253 244.4082 244.4765 242.0085 237.1127 231.2375 224.5646 220.5434 221.1532 222.6818 228.3004 230.4079 229.7668 231.8711 233.3689 234.9377 236.9591 237.7048 236.9426 236.4632 235.9846 236.04 237.045 239.4133 240.737 242.0809 244.8842 248.1218 251.1729 253.9061 259.3126 267.2901 276.7861 284.9344 288.8076 292.0968 296.0076 301.2794 309.4011 318.8592 327.4028 -9999
193.4087 195.2061 195.9121 196.8524 198.9565 201.2875 203.1748 206.2263 207.7084 208.882 209.9393 210.1262 210.2394 210.2587 209.8369 208.1211 207.9122 209.1197 210.3541 212.3493 213.4816 214.5092 218.4763 223.5511 226.6913 227.4139 226.2814 228.0031 231.9706 234.396 234.0066 232.9781 232.9506 233.2601 233.733 234.0785 234.8619 238.3394 242.477 242.838 243.1387 241.2576 234.9981 227.9861 221.4568 217.0652 219.4825 223.9402 227.8564 226.2213 224.5664 226.6593 227.2861 229.0187 230.6273 230.8902 230.7252 232.3313 232.8946 233.0799 234.0305 236.0619 237.862 239.3189 240.7285 242.9644 244.9536 248.8137 256.4702 264.9044 273.0949 280.6011 284.722 288.1282 291.7355 296.7538 303.8543 313.704 323.0856 -9999
190.5844 191.8031 192.9446 194.4118 195.731 197.356 199.0567 201.1058 202.9945 204.2758 204.2972 205.0283 205.9841 205.487 203.9775 202.1667 201.642 202.0045 202.9763 206.5503 210.065 212.8032 213.5726 217.4243 221.7739 222.9387 223.2327 225.4184 228.7924 230.0735 229.7441 229.0822 229.1483 229.1887 229.6377 230.1206 231.9423 236.1526 240.8683 241.8129 242.0367 240.7797 234.5318 226.8464 218.1158 214.4479 219.0558 223.7517 224.1947 221.8276 219.748 221.2937 221.7281 222.7188 224.0067 224.6084 226.2907 228.5519 229.4767 229.6696 230.6105 232.4174 234.6368 236.7311 237.6981 237.9898 241.9333 247.9823 254.59 261.4845 267.8418 274.1838 280.8686 283.9972 287.8352 292.9258 299.1696 309.5692 319.7175 -9999
189.0281 189.051 189.371 190.9983 192.3174 194.0417 195.3658 197.1497 198.7578 199.7006 199.025 199.5397 201.7502 200.5723 197.6069 196.491 196.9554 197.2363 198.3281 201.7681 205.7484 208.9662 212.3767 213.1981 215.9775 218.91 220.3096 222.8723 224.848 225.7245 225.4637 225.4007 225.4648 225.6852 226.0177 226.9629 229.5739 234.5838 239.4168 240.7081 240.3828 238.3213 233.2504 225.4928 216.9166 211.5172 215.8766 218.7812 218.2927 216.6429 214.8767 215.907 216.6622 217.2062 218.1612 220.045 222.843 225.7099 226.7807 226.4823 227.1663 228.5914 230.7551 233.1574 233.0933 236.185 239.9737 245.1112 251.0046 256.7671 263.9878 272.3981 278.4077 280.965 283.9276 288.7001 293.4777 304.8755 315.5106 -9999
189.2579 189.2534 189.0423 189.0376 189.3868 189.6882 190.7917 192.2832 193.9124 194.6608 194.1011 193.77 194.765 195.257 194.3439 194.8635 195.5518 196.0584 197.39 199.0465 201.9358 205.3385 208.5017 212.1097 212.9634 213.821 217.2432 219.8851 221.0749 221.3749 221.2814 221.4467 221.6375 222.0397 222.6961 224.3777 227.8549 232.9639 237.7356 239.051 237.7352 235.2494 231.3627 224.8133 216.4338 209.4559 212.4138 213.728 211.8427 210.2112 209.9317 211.3334 212.4735 212.9075 213.6801 215.4248 218.3976 221.8809 222.7402 222.3867 223.3539 223.7747 225.4059 227.6432 230.048 234.3086 236.6934 241.176 247.2031 254.6433 263.1577 270.9631 276.4123 278.394 280.8113 284.5198 289.2015 298.4992 310.6323 -9999
190.6865 190.8593 190.6995 189.8779 189.3674 189.4151 189.5444 189.7383 190.0222 191.188 192.3279 193.2671 193.4731 193.8052 193.5466 193.587 193.47 193.9174 194.7125 197.0948 199.4031 202.6335 206.3701 209.0187 211.8932 212.6242 213.7095 216.4114 217.5059 217.7895 217.7795 218.3058 218.7619 219.332 220.4683 222.446 226.2053 231.0903 235.9096 236.8364 234.9596 231.5222 227.4738 222.5088 216.1632 209.431 207.4649 208.0359 207.7362 207.9224 209.1714 210.0492 210.3452 210.5747 210.8897 211.2845 212.1293 213.3178 215.0636 216.8249 218.3557 219.1888 221.7331 223.7233 227.323 231.3129 233.9828 238.088 244.5174 251.6401 259.3166 267.8297 273.3332 276.1586 278.8967 282.1944 287.4966 294.298 307.6363 -9999
191.0614 191.4048 191.8473 192.1784 191.8585 191.0626 190.1396 189.9259 190.0305 190.1552 190.6203 192.2512 193.5971 193.7651 193.5208 193.4077 193.2107 193.2429 193.2124 193.998 196.5325 200.7935 203.8114 207.2346 209.2213 211.251 212.5305 213.1349 214.6127 214.9812 215.2749 215.8208 216.3538 217.693 218.9465 220.6463 224.2219 229.1953 233.7773 234.2414 231.5966 228.0018 224.1712 218.9557 213.9263 208.3078 204.9475 205.9359 208.0728 209.4059 208.7412 207.9398 207.6152 207.5519 207.9033 209.1893 210.6367 211.6896 212.332 213.132 214.5303 216.8279 219.1818 221.0961 223.3534 227.4964 231.1253 235.45 241.0888 247.9716 254.1295 261.8156 268.8169 273.4848 276.6885 279.6799 285.3163 291.8462 303.3018 -9999
191.2887 191.637 191.5273 191.597 192.2288 192.4135 192.2741 191.3976 190.2908 190.0624 190.0952 190.2205 190.9316 192.2897 193.1682 193.867 193.7452 193.8813 193.9948 193.7983 194.0617 197.8256 202.0098 204.6096 206.7915 208.0783 210.897 212.343 212.685 213.4485 213.7177 214.5678 215.5728 216.7065 217.9468 219.6028 222.4481 227.1706 231.1512 231.2471 228.2054 225.7296 221.8106 216.4017 211.3243 206.4451 207.0483 208.9192 208.5817 206.0562 203.7469 203.7943 204.5775 204.6591 204.6838 205.6942 207.3822 209.2901 211.0988 212.2434 213.0426 214.4249 216.6911 218.5218 220.2888 223.6405 228.1078 232.297 237.1248 242.7879 249.0999 256.361 262.0942 269.0186 272.9879 276.4726 283.3485 289.8721 298.8425 -9999
191.5998 191.9381 192.0608 191.7713 191.6803 192.1776 192.6658 192.6167 192.278 191.1149 190.168 190.1055 190.1841 190.7471 191.3034 191.994 193.0436 193.9828 194.063 193.985 193.9843 194.7295 199.0533 202.3536 204.6146 206.184 207.8506 210.9167 211.877 212.4171 212.883 213.6277 214.7596 215.6548 216.5367 218.0021 220.3961 225.5264 229.8142 229.0639 225.5917 223.3584 219.5769 215.0151 208.894 208.5991 209.0033 206.6714 203.9051 202.794 202.5297 202.9115 203.31 203.2441 203.4526 204.5243 206.0203 207.1194 208.7627 210.3885 211.916 213.1752 214.0741 216.0233 217.9104 221.0108 225.1591 228.3963 232.5446 237.7936 244.0346 250.8785 256.1277 262.1379 268.0216 272.5188 279.319 286.3292 295.5444 -9999
193.1851 191.7236 191.9794 192.0613 192.0211 191.8179 191.9306 192.1838 192.5167 192.721 192.2996 191.3554 190.6842 190.582 190.8768 191.1608 191.5476 192.4612 193.5793 194.0079 194.1021 194.4095 196.4104 200.6329 203.9643 205.2152 205.8654 208.3091 210.0533 211.4953 212.038 212.4934 213.0767 214.0781 215.2209 216.3277 218.709 223.1833 227.8369 226.8941 222.7537 219.3858 215.5264 211.3249 209.5573 208.1553 204.7255 201.9402 201.111 201.3005 201.2401 200.4393 200.7688 201.0537 202.1216 202.9091 204.5366 205.7545 206.8542 208.2263 210.4549 211.966 213.0635 214.0634 215.0296 218.0163 221.2285 224.1909 228.1944 233.3802 239.2677 245.4616 250.9693 256.771 262.8887 268.2028 273.7506 280.0112 289.6579 -9999
194.1872 192.1314 191.8759 192.2876 192.5431 192.5546 192.4148 192.3727 192.4278 192.5055 192.7914 193.079 192.8725 191.8018 191.0945 191.194 191.4123 191.6021 191.8663 192.7131 193.9587 194.2975 195.2801 198.2718 202.6294 204.3676 204.7982 206.503 208.2753 209.5277 211.0679 211.8212 211.9435 212.6122 213.4703 214.7474 217.0594 220.8643 222.8161 220.5197 218.1973 214.2095 211.0815 210.0377 208.057 203.8435 201.2979 200.7645 199.7195 198.9776 198.039 197.8006 197.7691 197.8962 198.483 199.9424 201.2589 203.0531 204.1959 206.4768 207.4624 208.7574 209.6916 212.5207 214.4384 215.2525 217.311 220.3111 224.2852 228.4021 233.6991 239.4819 245.1586 251.1496 257.4682 263.1771 268.337 274.2679 281.9982 -9999
192.2597 192.2935 191.9077 192.3408 192.9068 192.9975 192.9991 193.1285 193.4523 192.9391 192.9606 192.9984 193.4617 193.1404 192.2625 191.5679 191.5954 191.6672 191.8226 191.9129 192.2156 193.5549 194.6485 196.8228 200.7484 203.7469 204.1582 204.8664 206.711 207.7729 208.7194 210.7725 211.6136 211.6371 211.8259 212.5496 213.902 214.6213 213.5972 212.4091 211.4232 210.3833 209.7928 208.0617 205.4602 204.0637 201.1378 199.4533 198.1019 197.7308 197.745 197.7638 197.8197 197.8153 197.7791 197.8333 197.8788 198.4746 200.3053 202.6743 204.3241 205.1356 206.3716 209.3848 212.5698 214.9779 215.5299 216.681 220.682 224.6604 229.0705 233.9406 239.5457 245.414 252.1194 257.5152 263.0558 268.7025 274.6423 -9999
192.1512 192.0605 192.0559 192.6155 193.3261 193.4586 193.551 193.4795 193.4523 193.2105 193.5386 193.5052 193.3857 193.5288 193.2942 193.0628 192.2599 191.7666 191.8912 191.9653 191.9978 192.1324 193.427 195.3653 198.7534 203.1778 204.302 204.3598 205.869 206.89 207.803 207.989 208.7641 210.1565 211.1562 211.3477 211.2131 211.0601 210.8169 210.4585 209.4625 207.4305 204.9214 203.3492 201.7775 202.3501 201.6154 199.188 197.1866 197.5316 197.3321 197.345 197.5966 197.653 197.6219 197.8365 197.7722 197.7681 197.8513 198.3893 200.1708 202.6585 204.3157 207.9483 210.875 214.0307 214.8862 215.8294 216.4984 220.0164 223.2773 228.827 234.4234 239.7616 247.5619 252.69 256.3825 260.9288 268.2642 -9999
193.6014 192.9621 193.2336 193.5176 193.9346 194.0399 194.1058 194.2284 194 194.1024 194.1902 193.9851 193.9974 193.9725 193.7162 193.4713 193.3039 192.896 192.3253 192.0029 192.0258 192.0309 192.1021 193.0137 195.2028 200.4308 204.196 204.8427 204.9646 205.3511 206.5746 206.84 206.9552 207.2242 207.918 208.8971 209.7489 210.3329 208.8812 206.4118 203.9026 201.6821 200.0039 198.6521 198.3907 197.9574 197.5231 196.9283 196.6374 196.9031 196.9956 198.2616 199.4062 199.6548 199.5015 198.3203 198.1562 197.8255 197.7847 197.8374 198.0069 199.2305 201.8048 206.6822 210.5893 212.0115 212.8895 214.5169 216.3548 217.1138 219.0681 223.4511 229.5094 235.2477 242.5148 246.1266 249.3924 254.9056 263.5837 -9999
197.4248 195.0398 193.6815 193.3996 193.5131 193.7504 193.8835 194.1563 194.1712 194.7061 194.7653 194.6583 194.6304 194.5804 194.2726 194.4605 194.0119 193.9227 193.7068 192.8746 192.1638 192.068 192.0341 192.0399 192.5091 196.095 201.9664 203.4787 203.8957 203.8694 203.2952 202.7796 202.6941 203.0409 203.1211 203.4536 205.0508 203.6756 201.4585 200.4307 198.5939 197.5977 197.3248 196.6701 196.3018 196.3051 196.3799 196.3949 196.345 196.6681 197.8841 199.5984 199.9843 200.0912 200.2917 200.2663 200.0804 199.3937 198.1461 197.8605 198.1168 198.4164 198.5309 201.7675 208.3048 210.6051 211.8701 213.8493 215.5651 216.3966 217.304 218.6333 223.4601 230.5302 236.7732 237.9953 243.5963 250.664 258.1006 -9999
200.5058 199.3665 197.1376 195.0198 193.8859 193.7515 194.0145 194.3813 194.3249 194.7176 194.7284 194.7785 194.7594 194.6963 194.4424 194.5988 194.636 194.7287 194.6495 194.4715 194.1876 193.0804 192.512 192.0834 192.0376 192.3445 194.5331 197.0618 197.607 197.9875 195.8497 195.1146 194.7969 194.8654 194.8506 195.1031 195.5539 194.8802 194.8533 195.2097 195.3387 195.3716 195.5421 195.8247 195.926 195.9927 195.8814 195.9236 196.2979 197.2574 199.255 200.1264 200.5334 200.6092 200.7136 200.5701 200.549 200.5147 199.9122 198.8538 197.8972 198.0121 198.1732 198.3256 201.9806 206.0008 208.7713 211.4902 213.3938 213.7241 215.4841 217.5417 218.2732 222.1824 226.606 230.2784 238.3147 245.2357 252.9439 -9999
200.773 201.0195 200.2237 198.7531 197.2625 196.401 195.8027 195.0507 194.7843 194.7948 194.8056 194.9333 194.6972 194.7145 194.8416 194.8348 194.9094 195.0072 195.0545 195.2751 195.8758 197.3234 197.308 193.7245 192.2298 192.3324 192.6284 192.7469 192.8629 192.9902 193.1406 193.3651 193.4709 193.563 193.6024 193.6259 193.6332 193.6728 193.9009 194.1547 194.2719 194.7225 195.1766 195.4604 195.3998 195.275 195.4927 196.1106 198.0372 199.9276 200.3006 200.8284 201.1736 201.3268 201.4178 201.3787 201.224 201.0159 200.5438 200.2278 199.3926 198.0891 197.9312 198.0003 198.1129 198.9618 200.9992 203.4771 204.7153 207.7339 209.6136 213.6243 217.5159 218.4545 219.1832 223.1238 231.6264 239.7807 248.9992 -9999
200.7501 200.7285 200.506 200.1822 199.8658 199.2982 198.5083 197.4625 196.397 195.8338 195.604 195.6257 195.8827 196.106 196.1775 195.8852 195.9284 196.3135 197.1406 198.6477 201.0661 203.0199 201.6116 197.4669 194.0979 192.8076 192.653 192.8123 192.9597 193.0203 193.1297 193.2032 193.2606 193.4089 193.6563 193.7682 193.8236 194.0356 194.2742 194.1615 194.3692 194.6772 195.0602 195.2788 195.445 198.5788 202.9846 205.7744 207.4921 206.7186 203.4489 201.2003 201.6554 201.6679 201.7285 201.7336 201.6946 201.4992 201.3015 200.8604 200.6417 199.9554 198.6283 198.1698 198.0632 198.0576 198.1158 198.1114 198.6999 201.269 204.256 208.0686 213.782 217.755 218.812 219.8286 225.7462 236.0866 246.2011 -9999
200.6059 200.8979 201.1275 201.1304 201.2754 201.5108 201.1811 200.169 199.4114 198.9382 198.8781 198.6878 199.1123 200.2231 200.8367 200.1927 200.31 201.5862 202.5833 204.4951 206.4866 206.9263 205.8206 201.8223 197.9266 195.6107 194.4185 193.9386 193.818 194.0317 194.2106 194.3742 194.8967 195.19 195.4131 195.6747 196.0791 196.536 197.0329 197.8188 197.6359 196.7934 198.1375 200.7646 202.193 206.5898 210.3093 211.7994 212.1162 211.2731 207.3312 202.0684 201.4809 201.5282 201.6892 201.7132 201.7993 201.762 201.5999 201.361 201.0463 201.2495 200.627 200.2473 199.2962 198.6813 198.2941 198.1552 198.1598 199.7837 201.2328 203.5248 207.9008 213.8184 218.1602 219.2012 222.6625 232.0476 239.0499 -9999
200.7207 201.1161 201.3227 201.6633 201.7358 201.8027 201.9813 201.9681 202.0695 202.0251 202.1916 202.4738 203.0456 203.7789 203.5233 203.5177 204.2262 205.5583 206.7739 207.7316 208.3751 209.2041 208.8611 206.0519 201.8212 201.9628 201.2024 200.1147 198.5627 199.103 198.6622 197.848 198.265 198.4691 198.6306 199.6121 200.6284 201.8846 203.2406 205.0555 206.6241 208.7227 210.3546 210.9175 212.0533 212.5646 214.0573 214.8985 215.026 214.0961 210.3033 204.7533 203.2465 202.5029 201.6323 201.6505 201.7468 201.6593 201.5312 201.4979 201.5119 201.916 201.909 202.3547 201.7005 200.0513 198.8915 198.5153 198.4422 198.963 200.8233 201.817 203.9142 208.7729 214.9619 218.9703 220.2205 226.5587 235.8832 -9999
200.6721 201.1949 201.6419 202.0131 202.4538 202.7671 203.1512 203.2793 203.526 203.7427 203.7799 203.8685 204.075 204.4156 204.5695 205.0127 205.8186 206.8781 208.0803 208.8393 209.7571 211.2513 211.9077 209.5472 207.7331 209.4687 209.4241 208.6463 208.1066 207.4225 206.2201 205.0085 204.5326 204.6207 205.0844 206.3199 207.217 208.095 209.5425 211.9743 214.005 216.9896 218.3169 219.3227 219.4258 218.5298 218.4342 218.5914 218.7692 217.6109 213.5285 208.9938 207.1782 206.698 203.9673 202.6845 202.6296 203.3203 202.9839 203.4731 204.4618 205.336 206.3613 206.9171 207.2472 205.281 200.6731 198.7815 198.5923 198.6264 200.3464 201.3275 201.7019 204.1353 209.8156 216.4934 219.7215 223.2302 234.4357 -9999
200.9864 201.4764 202.1734 202.606 203.4511 204.1162 204.5192 204.7458 204.9393 204.9793 204.7574 204.6084 204.6405 205.2486 205.7673 206.0919 206.9229 208.3221 209.3851 210.2927 211.3644 213.4468 214.8775 212.2439 213.6526 216.0551 217.0475 216.733 216.5042 214.8646 213.6875 212.2095 211.588 211.2658 211.3687 212.649 213.6225 214.6684 215.976 219.3249 224.9436 227.1343 226.6427 226.7322 225.8079 224.5898 223.2006 222.9626 223.1286 222.0169 217.7488 213.981 212.5573 211.7578 209.6059 208.3595 208.1065 207.9812 207.9776 209.0724 210.8857 211.5239 212.0215 212.5876 213.0608 210.5248 204.8479 199.786 198.6696 198.6618 199.2452 200.9771 201.3208 202.3587 206.2688 212.9308 219.1248 220.5145 229.8696 -9999
